# 3D point list with one line of data per point:
#   POINT3D_ID, X, Y, Z, R, G, B, ERROR, TRACK[] as (IMAGE_ID, POINT2D_IDX)
# Number of points: 348, mean track length: 6.4986195472114856
1862 0.30085673425425802 0.52338998464748598 0.06895955580785007 217 214 219 1.8620858489775685 27 705 36 1107 25 1035 30 1029 34 966 30 1052 34 956
1861 1.3865859045445503 0.60717233601274756 0.071943887452801933 150 126 99 0.32045463413301917 30 422 29 428 34 627 28 519 33 412 22 396 32 670 41 562
1859 0.19547978339394484 0.75104729582698082 0.083797893101266244 210 208 210 0.37320959922261776 28 428 27 375 36 275 22 386 25 427 34 256 30 436 29 252 26 350
1857 0.053111799683980498 0.67288035983272287 0.081194139365895507 144 144 147 0.36101291246078437 28 1056 33 682 36 743 23 984 22 959 27 1006 32 961 30 992 29 1021 31 919 41 1132 35 973
1856 1.3430710378960409 1.6353345009527829 0.13205717586003049 83 70 55 1.8073949627397212 34 1027 28 1078 27 897 33 1079 23 1025 25 692 41 1087 39 750
1855 -0.43017953943662979 0.27696547280750078 0.041542242178238216 108 107 109 0.21096672114274131 28 880 33 1122 25 759 34 883 29 580 32 923 31 818 41 662 35 877
1853 -0.33799014006815964 0.31620734185970056 0.047198360304615133 212 209 213 0.23603740285580566 28 252 27 153 33 238 36 128 23 167 22 166 25 178 30 224 34 111 29 116 32 115 31 193 41 117
1851 0.6180704394997647 1.3610011523599788 0.15156688869281038 124 103 78 1.7866355840537778 30 957 33 948 33 945 25 918 30 954 29 1100 32 1142 34 1071
1850 -0.30390950078508455 0.11272993313283512 0.050633789412726324 194 191 194 0.35016079592466537 32 911 34 1121 31 860
1849 1.5855024496263661 0.7417960778846665 0.075269477539170751 130 102 73 0.17895018855951533 25 971 34 1118 31 947 21 940
1848 -0.10229559928790713 0.64165538511961484 0.082690003234435983 166 165 168 0.033307982312031879 29 1168 34 1113 31 1130
1847 -0.32669142257221268 0.790310569901713 0.091090908586648631 91 84 96 0.078206670375716131 32 945 34 1107 31 903 41 1110
1846 0.17210824272739284 1.21780521008783 0.11548875845661832 161 136 111 0.12072459922342986 25 1121 34 1081 31 1079
1844 -0.2781643019692206 0.21186250473734536 0.038505496739120765 209 205 209 0.11695314732453747 30 906 34 1051 41 670
1843 -0.50520873762686525 0.38645393562335834 0.052520793170554927 143 139 139 0.12087927834291194 32 844 34 1047 31 839 35 760
1841 1.3565686716978658 1.7540804042535691 0.068357052262296561 177 147 111 1.6464394683096919 29 543 32 1183 34 1014 31 1066
1839 1.3326235732775222 1.7855076861343286 0.050205399568220455 109 88 80 1.4870792208913679 32 1112 34 1009 31 1106
1838 -0.36086286265957052 0.64859641920596711 0.077049096268300823 213 204 216 0.051975868530265777 29 1175 34 1006 41 942
1836 0.19827462926559752 0.67410637996161726 0.07763046592691078 202 200 203 0.065520715942726473 23 1065 34 984
1834 0.24317568173050502 0.47518020153658302 0.050754912418681172 169 166 169 2.0986698572809206 25 1066 30 1098 34 978
1833 0.19046608178340135 0.50278727276480661 0.12955570253686272 171 170 173 1.9781481568692125 29 998 34 974 31 1007
1832 -0.077471091453375329 0.58002701156340519 0.06965355652460696 206 206 208 0.20719691035692911 30 1043 34 959 23 974
1830 0.50452987893065382 1.1336268606544773 0.12600685411603371 163 130 94 0.026902767881906438 25 1119 34 933
1828 -0.3490025923519583 0.15226614799024057 0.028579331166533058 144 139 143 0.1284856149064359 32 905 34 870 31 901 41 884
1827 -0.27964356225422371 0.13956382753687166 0.028827108311888568 192 190 193 0.12005594310229456 32 904 34 869 41 883
1826 -0.26491271413242834 0.14835344663182626 0.032515152100066003 194 192 194 0.21209469306265083 32 1153 36 972 34 866
1825 -0.36141355845857082 0.1729447513027636 0.034483844280114369 142 134 139 0.11725867906016722 32 895 34 861 41 830
1824 -0.67174550644561537 0.45003632020527529 0.056515211609329277 206 201 205 0.43957768540652176 36 1139 34 846 31 677 39 733
1823 -0.4641803156229794 0.43223032463866096 0.055988070096552656 187 183 187 0.22304982648174082 29 724 34 839 31 1051 41 1020
1822 -0.91660975258090382 0.4610249762495493 0.047554242358635701 208 203 205 0.35414838824986655 32 841 34 812 31 834 41 983 35 870 39 840
1821 -0.52154917269092493 -0.23817054776414168 -0.031537973601579596 203 190 188 0.22824498611851038 32 832 34 803 31 796
1820 -0.41457360425405809 -0.51737688649281754 -0.075685917432242469 151 127 92 0.21400919441455721 29 802 32 801 34 781 31 1119
1819 -0.24318686221481151 -0.44768413201253265 -0.043854003727085922 166 141 107 0.18385050224645991 28 1104 32 792 34 770
1818 -0.17888323854771984 -0.026013734014217943 0.0024632244854914543 150 145 149 0.47695820873610195 30 796 34 762 31 740
1817 -0.60800894016315032 0.096603668185442512 0.030926894367733 206 201 205 0.94375678678683483 29 769 34 759 35 676
1816 0.066728592331850412 -0.045926600341995083 -0.0029764391883570183 166 146 130 0.1376970021231459 32 782 34 757 41 1183
1813 -0.67318983379568753 0.16680004039721094 0.020398944664052815 158 155 158 0.20322009303656144 29 886 34 745 41 892 28 866 35 674
1812 -0.21616832851706025 0.078930135097172865 -0.013684348543426981 149 147 150 1.7268463446810229 29 883 34 744 31 867 35 699 41 857
1811 -0.64971843728523426 0.068969357732113809 0.010978053994952662 133 128 132 0.30648124570681584 33 879 34 730 41 741 40 572
1810 -0.58646387335916506 0.014463668691000353 0.0083729029326222223 209 204 207 0.60107909940357473 29 785 34 729 35 711
1809 -0.56883858100366103 0.034256048912551712 0.015151932767267865 205 200 203 0.57395951603170536 36 963 34 721 41 744
1806 0.7270906931939245 1.7618886445380544 0.18791406320760642 169 149 128 0.38374941205865792 29 683 34 634 35 939 39 574
1805 -0.74152481361888456 0.05998845759367652 0.0027288431927961782 139 112 101 0.30050534157092157 29 784 30 803 34 598 31 699
1804 -0.31792014784784339 -0.69387947069887213 -0.087375655582504902 226 204 174 0.30177716439094721 30 821 34 592 31 546
1803 -0.51349642483843805 0.085948671836934401 0.026791996419553918 208 203 208 0.54989050552254604 28 896 34 584 35 679
1801 0.19652846233454907 -0.18190260731780009 -0.015080856358800854 144 119 102 0.10704350521208457 30 651 34 574 41 754
1800 -0.5152435039862644 -0.030673093605491447 0.099726234702730773 197 195 198 1.6031698121061204 32 601 34 572 31 563
1798 -0.59286725287124797 -0.049796834423760539 -0.0034154992023924455 200 195 200 0.13616312047485968 30 773 34 565 31 574
1797 0.11499624543768561 -0.43594482954421132 -0.034042774742551546 172 145 114 0.89051668561793784 22 696 34 556
1796 -0.0070001113444814189 -0.47959699353042995 -0.050604120784837552 179 152 124 0.21706592467053656 32 786 34 553 41 807
1795 -0.1250236249669453 -0.52007539162856442 -0.057576102600511665 149 125 106 0.12050405590629017 33 529 34 549 26 713
1794 -0.85029168852586223 0.45425685873617172 0.054707680777156653 204 198 201 0.34102612085192269 29 867 34 543 41 571 28 741 35 759 39 433
1792 -1.0850281875155483 0.48559062169870315 0.051154632862883159 130 108 82 0.48569938053501199 30 846 32 484 34 531 31 453 41 1084
1790 -0.5385029285891223 0.33069357485998629 0.055656756183747477 197 195 199 0.19856620036266837 30 857 34 500 31 652
1789 -1.0572226098491027 0.43518914089764393 0.0041245161646260454 140 116 84 0.78301907973559981 29 576 32 859 34 495
1787 1.1421658846842286 0.31951831256304347 0.03643013890937144 127 97 69 0.18570079749161961 27 170 29 484 34 490 35 786
1785 0.3098127891453098 0.34297246235055756 0.015176313456513301 202 200 203 2.2209322012273365 30 511 34 454 21 216 26 402
1784 -0.48806601345551015 0.53759974003359556 0.082693974627273417 205 200 204 1.2286655370100705 32 263 34 451 31 476 40 449
1783 1.9663363912893475 1.1935637247585209 0.19870948635732508 106 93 90 0.2866685610382711 29 136 34 413
1782 -0.012716671411448388 0.80358273284921389 0.083574336976360852 199 197 200 0.29257073408926659 32 405 34 379 41 569
1781 -0.55430121472284877 0.024398537059725639 0.011343348776866069 200 195 199 0.17461298114488308 32 386 34 360 41 281
1778 0.15883669754393726 -0.073983286775153562 -0.00062426016872736689 154 132 109 0.48119143123990116 32 313 34 268 31 305 41 273 35 239
1777 0.34129779673777955 -0.11305177139026876 -0.012403874832660474 172 146 116 0.044134701955954141 29 391 34 267 31 289
1776 1.5700574024105198 0.80057745689242055 0.079609930075453361 148 119 85 0.26843760372932352 32 456 34 263 41 520 35 608
1775 -0.61885402994821848 0.70046474378055357 0.08501032630767924 202 199 202 0.18091331715171335 32 273 34 242 31 233
1774 1.4399746927909203 1.5568941944993502 -0.032197202447921722 98 89 90 0.94378863637030841 32 180 34 238
1773 0.47588252134775205 1.5500911350165096 0.15129931923013384 144 117 83 0.32283675654868749 32 148 34 236 31 235 41 222
1772 0.01113173278445978 0.05259220858886185 0.013302581376017508 206 206 208 0.056707818453180514 25 162 34 213 21 580
1770 -0.048593270283340373 -0.35125707587189536 -0.031231385838170381 69 73 93 0.28413631279481272 29 153 34 148 31 176 39 278
1769 1.3249487391250374 1.8734698261794052 0.077106388567030046 111 94 94 0.27693194599691712 32 145 34 105 31 111
1768 1.4052359916411654 1.7086808342683057 0.11508350414303248 162 132 96 0.81411425666826087 32 106 34 103 31 108 41 142 35 138 39 143 40 141 38 121 37 216 42 226
1767 1.8509089065693025 0.68177737274006445 0.041605020569248051 178 153 124 0.76372958026651772 36 58 34 98 31 124 41 180 35 225
1766 -0.36611974045368412 -0.55777354707849125 -0.10128720869274101 158 131 102 0.3177185658577823 32 73 34 90 31 72
1764 -0.63032373935919328 0.52589842518635432 0.088726079731566848 209 204 208 0.20087328326139203 32 81 34 73
1763 -0.08368124092766871 -0.5971123193485145 -0.052217783817040377 195 171 143 0.5593045655155281 32 74 34 68 31 62
1762 -0.177029509813493 -0.63785133887176659 -0.079387424261012862 193 168 139 0.94628632235959553 29 60 34 67 31 73 41 78 35 93 42 167
1761 -0.018202680851421238 -0.56338074717259112 -0.04575056268654621 196 174 143 0.24337172742811353 32 75 34 61 31 75
1760 0.72859379196217033 1.8471287355764932 0.47603731902069929 137 133 138 2.4600210483004088 29 37 32 46 34 40 31 47
1759 -1.0388038656575684 0.4628470769712254 0.070830191214490246 159 131 105 1.4337026463614042 32 53 34 36 31 27 41 15
1758 -0.85443056369899306 0.33783497434009557 0.03798306412550273 202 198 202 1.499654454655839 32 24 34 34 31 24 41 22 39 19 38 29
1756 -0.067244812367479589 0.94279537801251112 0.11230372067972808 206 204 207 1.5384250658951697 29 3 31 7 41 6 35 7 39 10 40 10 38 12
1755 0.71290114797471937 1.4500497840440498 0.12323113883254741 160 129 101 2.0251284737303128 32 4 31 3 35 2 39 2
1753 -0.37702342877754835 -0.38540810420634319 -0.04507278345385364 160 136 107 1.4793710352140808 29 793 32 787 31 759
1751 0.64358793327628483 1.3804457648308841 0.1457149561098543 108 92 80 1.2966497742233136 33 1088 36 1023 36 1025 25 915 32 1143
1749 -0.24021683570811275 -0.042335944954631055 0.0092112257399885825 214 212 215 0.31649356701302334 28 235 27 264 33 173 36 256 23 361 22 354 25 262 32 234 30 187 29 198 34 187 31 185 41 209 26 233 35 245 21 528 39 237 40 425 38 492
1748 0.60060171947949903 -0.066939950935988896 -0.016716827874673851 178 155 124 0.57010382325582698 22 188 25 207 29 312 32 296 36 411 30 406 34 277
1747 -0.28478018485315004 -0.64877841070732722 -0.064706089748628376 193 172 149 1.0942081345120065 36 665 23 762 22 312 33 339 36 375 32 365 30 382 29 374 34 320 31 335 41 544 26 274
1745 0.22335466139001764 0.7076671820407453 0.082559703317938826 206 205 208 0.20138402178304024 27 390 33 396 23 384 22 397 32 413 30 443 29 441 34 386 26 414
1744 0.40464732289611011 -0.01122547696443163 0.0039581113708563615 184 164 140 0.51322281371042022 36 337 25 378 30 325 29 591 32 519 28 390 23 274 34 275 31 698 20 679
1743 -0.64945667033555798 0.030402391127732437 0.0052141801589245477 211 208 210 0.68971491070352675 28 898 33 773 36 961 32 600 36 647 29 623 34 568 31 508 41 286 35 464
1742 -0.67958313483733757 0.11300003529095408 0.016822521601876826 141 137 141 0.52934317831806488 28 915 33 1097 36 969 27 820 22 834 32 537 30 787 29 614 34 587 31 1054 41 492 26 788 35 1053 39 646
1741 0.12194522526453649 0.48703704092685607 0.062575604146192093 167 166 171 0.11881339448816851 27 745 28 757 33 714 23 692 36 1130 25 1072 32 1013 30 1090 29 1000 34 980 31 960
1739 0.14481015430843969 0.66749289305270898 0.082774898396764079 161 159 162 0.34018048534681333 29 248 36 271 28 250 27 218 23 213 22 228 30 284 32 278 34 249 31 243 41 437 26 421 21 361
1738 1.9890440957319255 0.85233325553507577 0.060437843362700722 199 175 143 1.0482663302786972 28 286 33 125 36 278 25 452 29 466 30 298 32 968 28 97 33 97 23 114 22 80 27 67 25 87 32 281 34 421 31 421 41 360 26 38 35 606 21 45 20 37
1737 0.32646580117139273 0.35629257869472541 0.047220789848435113 171 169 174 1.6213522423544577 27 758 33 861 36 804 22 760 25 775 30 739 29 1172 32 713 28 502 27 454 36 507 23 466 22 530 25 644 30 502 29 674 34 677 31 672 26 468 39 765
1736 0.26033056677908156 -0.23245371408338364 -0.026494081132722502 193 173 146 0.61145133323361078 28 358 33 325 36 377 23 378 25 343 30 363 32 611 27 338 22 321 29 409 34 369 31 573 26 313 21 404 20 440 27 356
1735 0.45472207303662654 1.3568753678353334 0.14098106881034173 177 154 125 1.8547372597311336 27 855 33 946 36 1026 23 872 22 949 25 921 30 949 29 1102 32 157 27 191 33 138 22 84 25 154 31 1041 41 161 26 1004 21 125 26 98 20 124 24 175 40 750 38 287 19 186 17 197
1734 -0.54236820217565507 -0.0012075768210438875 -0.014935372016024464 205 200 204 0.21076418169602118 29 752 32 1172
1733 -0.32188624310120934 -0.64924232844190233 -0.079461748325069831 157 132 101 1.1848543338715471 29 1147 32 1170 31 544
1732 -0.34161185319326748 0.24637119212214054 0.030942818535454983 130 127 130 0.36701652962539133 29 1159 32 1158
1731 0.63438850886978471 1.3634944060191161 0.13763837068363974 62 42 43 0.041262894256708434 28 963 32 1144 31 1042
1729 0.51599498394555487 1.149812647623679 0.11927803470747131 57 42 41 0.083898325889821615 33 925 32 1129 34 929 31 1073
1728 -0.53258998477636321 -0.24601611621981354 -0.047083122257007316 139 111 94 0.3123740282021108 29 824 32 1102 34 804
1726 0.76604435482636446 1.4490521365392808 0.14636274004521269 62 45 43 0.11257492691518162 36 1191 32 1080 31 1033 41 1034
1725 0.72103586963362098 1.4635260890517641 0.14736730742458079 58 53 61 0.23011802994768518 28 954 32 1079 26 990
1724 1.2456447672058208 1.6374774458669732 0.15137598710322014 152 129 108 0.75360366709597437 29 1051 32 1058 31 1030
1723 1.3876806759992786 1.6999310353173345 0.1231362471914568 157 132 102 1.0838439153231139 28 1063 30 1032 32 1056
1721 -0.76936900315560219 0.57120300383207234 0.068124776468522941 150 146 148 0.19153266718296721 33 1032 32 1024 31 1112 39 762
1719 -0.51421968348799274 0.55998431916560154 0.07017278517720868 202 199 202 0.23722685811106384 29 1083 32 1015 34 668
1718 -0.43093174348732244 0.58673243485437154 0.074276822434104134 175 173 176 0.066368787843164953 29 999 32 1005
1716 1.5745029430214916 0.80916995277274173 0.082535015410473866 135 105 70 0.51130585909851944 23 344 32 979 24 498 26 380
1715 -0.30037107256498147 0.92450218443719567 0.089629760378888035 206 197 196 0.43993371306782753 29 925 32 977 41 1141
1714 0.036462443227203434 0.66577113837550073 0.078116040085199942 205 204 206 0.21334344914256759 28 1055 32 966
1713 -0.066588866444008632 0.76416837660041093 0.08967308724037959 145 143 146 0.14584698469947996 29 948 36 1077 32 947 31 904 41 1180
1712 0.027811599531562536 0.7950769858752138 0.091359270043047766 151 149 152 0.22207869625045024 30 1023 32 939 34 919 23 954
1711 -0.88801056286505364 0.29809972380804034 0.011185700837440629 200 187 192 0.90769493395642564 29 909 32 937 35 842
1710 -0.28518987232892679 0.19421892879263009 0.036604822217466457 122 120 123 0.12621351108518022 29 902 32 935 34 894 31 886 41 815
1709 0.46550905489159583 0.21644108244451526 0.025940618039021639 151 133 116 0.39914124045591143 30 869 32 847 34 855 31 849 26 750
1708 -1.0871312217428386 0.45913525414302847 0.013647609164807317 203 182 145 1.3215889383158388 29 874 32 846 34 818 31 845 32 852
1707 0.26465335654628303 0.27322728051736245 0.032020599594766143 158 155 161 1.7350237687095384 36 935 32 845 26 995
1706 -0.41467067767627286 -0.21221578008102351 -0.01820704089842853 151 147 148 0.37871630679627433 29 815 32 828 31 778 39 602
1705 -0.55534871943135689 -0.067204076783738104 0.014735667485251762 124 117 124 1.5399911346975588 29 754 32 813 34 739 31 791
1704 -0.28160485531542329 -0.61791436450821502 -0.073092115489726411 139 119 99 0.26392160256100117 28 829 32 805 41 779
1702 -0.25602862794040426 0.017220265813016222 0.016590429688310496 140 137 140 0.037138063128586161 29 771 32 783 34 758
1699 -0.26049941286631606 0.09813149147537939 0.037967726282208014 186 184 187 0.095417202912347177 29 882 32 762
1698 -0.51368942355019698 -0.091670477697739755 0.00026787416259349377 204 199 204 0.3643389529172853 29 757 32 760 34 789
1697 -0.53151217010544971 0.0615059266117466 0.016569940320093041 204 201 206 1.0675540364090694 29 776 32 749 35 623 39 697
1694 -0.84101771174757411 0.48052189938869361 0.056339362421170602 198 193 198 0.14272915965579103 30 871 32 722 41 613
1693 1.0073883646567925 0.22797777148358861 0.026930915158201132 126 102 75 0.1273115544968621 30 496 32 718 34 525 31 711 41 978
1692 -0.5952623126514085 0.52131181825618578 0.070533832104537342 132 127 131 0.21371717990294237 29 673 30 749 32 709 34 673 31 612 41 593 35 439 39 764
1691 -0.67778629880496521 0.53818847160123684 0.070278121781593345 196 191 196 0.16239558532767395 30 732 32 706 34 1044 41 931 35 808 39 766
1690 -0.57569552586352235 0.53598148300002146 0.06995844851292167 130 125 129 0.42855097180072349 28 1087 32 705 33 724 34 671 39 457 40 705
1689 -1.1400952252071106 0.4078764090189505 0.24338661594828082 211 205 191 1.5525348697418753 29 831 32 696 34 832
1688 -0.26048979736461597 0.29820657102309978 0.03876280565819535 204 202 205 0.97313531182558544 28 670 29 575 32 694 34 496 31 649 41 654 35 576 39 828
1686 -0.91084333148554464 0.41536950216646956 0.045549806061230741 201 199 201 0.31367502481633097 30 856 32 692 34 497 31 643 41 591 36 794 39 537 38 597
1685 -0.8291978912367961 0.42163213769805041 0.047216242071458012 199 193 196 1.3679217242313997 29 570 32 686 31 842 41 977 35 396 35 863 39 437
1683 1.3428549575832953 0.60305754528540123 0.083143743501730691 160 133 96 0.42753203754709102 29 430 32 671 34 628
1682 1.4871900613005629 0.67216560933089908 0.081343590059192575 139 108 77 0.8704785341606498 29 418 32 662 35 1009
1681 -0.13414495527010073 0.81451484193344026 0.098582726734483095 199 197 202 0.49109986907598313 29 636 32 661 34 621 39 988
1680 -0.56075595546662449 0.63157786268241223 0.078213780245237188 202 199 202 0.21358501103295427 23 975 32 642 34 660 31 595 35 428 39 445
1676 0.2145476701209294 -0.20118755058527119 -0.019587378659782644 171 143 116 0.223861504521425 29 594 32 605 41 758 35 723
1675 -0.71449707592392975 0.019114631360311163 -0.0045479966938229491 131 99 94 0.35745241869594951 30 728 32 604 34 571 35 488 41 1072
1674 1.2892414477076557 1.6891966507077161 0.14347088278280981 111 82 64 0.31581448843455212 30 658 32 587 34 639 31 558 41 1085 35 935
1673 -0.4823025172957715 -0.32076883023065872 -0.04590065795144499 137 113 96 0.18190181091414348 29 791 32 575 34 765
1672 -0.31178954429852218 -0.347028655796084 -0.024921442181005331 166 139 110 0.26230268871248558 29 593 32 572 31 802
1671 0.4143762596317811 0.030640110009389238 0.0042443065291623266 139 118 91 0.14394515319980064 25 544 32 561 26 606 28 601
1670 -0.80900899560279216 0.15999901220802862 0.016387487631496431 131 106 95 0.45476400404032424 29 610 32 534 34 580 31 705
1669 -0.58083981190654854 0.13091696340376885 0.0098975128592108681 200 198 201 0.86555313788836674 30 896 32 516 35 685
1668 0.2713187951242349 0.39755083232758276 0.062705959664462338 198 196 199 1.1843328110002778 30 495 32 515 31 435
1667 0.95965872341870617 0.34777010426796862 0.052895512730203334 164 134 96 0.51930688318453588 29 482 32 507 31 442
1664 0.23913905598694613 0.27118542789165478 0.032103572998706829 194 192 194 0.59432610178494771 23 296 33 301 29 332 32 486 35 371 21 232 20 345 24 666
1663 -0.76071430322798761 0.46541644653516812 0.057957059806191216 199 194 198 0.13473002979936444 23 590 32 479 26 759 35 335
1661 -0.55462563528702069 0.46799296382669231 0.063545225521633608 140 135 140 0.35889964825201853 29 508 30 570 32 473 34 456 31 443 41 238 35 342 39 413 40 454 42 364
1659 0.18330973313009052 0.35335860857353707 0.043958715857288007 202 200 205 0.30218268281641492 29 504 32 459 26 409 35 387 21 473
1658 -0.017904965183466681 1.0613300881825203 0.10820004289589615 195 193 193 1.16664258234917 29 298 32 448 34 939 31 416 41 362 35 312 39 401 40 802 38 711
1657 0.19818721558291613 1.1311635113118168 0.12530074673486297 90 71 58 0.34877993077753755 30 467 32 431 31 414 39 399 40 388
1656 0.33202093577775799 0.54743342954059193 0.059816804600019993 200 200 199 0.17072672575413222 29 277 32 429
1655 -0.36697708706020155 0.89926248789892671 0.11341688983358025 139 110 89 0.39993610273250374 22 1018 29 424 32 417 34 260
1652 0.14813144570815118 -0.10560586839318217 -0.012783395301329341 172 145 118 0.3924562503582158 29 398 32 381 34 355 31 351 41 279 35 242
1651 0.30901119574916641 -0.13008190871814182 -0.015630416725206379 171 145 113 0.12187268268066848 29 395 32 378 34 352 31 348
1650 0.52043502034865052 0.067729824280039777 0.0071582155747600216 165 138 104 0.16972588802623131 29 351 32 370 34 307
1648 0.59287009124513346 0.02014923985552794 0.0040764284872493294 132 110 87 0.098084344186385342 28 383 32 340
1645 -0.56767750243880677 0.73622505537806981 0.082914486053053585 202 198 199 0.18761807774916039 30 529 33 395 32 279 34 245 31 245 41 245
1643 -0.58972453138207093 0.74954314013276202 0.097212167005114675 143 115 95 1.0421197130039561 29 297 32 276 34 247 31 246 41 152 35 145 39 217
1642 -0.71233749390072421 0.67069266734062571 0.077234560975472502 153 126 112 0.25143056839366723 29 532 32 270 34 205 30 546 31 242 41 243 35 208 39 213
1640 0.054554655622093051 0.54073812052732995 0.0659388302788982 198 197 202 0.16634955996974468 29 275 32 267 34 203 30 278 31 260
1639 -0.78361189734782555 0.6231273494985714 0.068199176653556223 155 129 115 0.31890951602257583 29 272 32 266 34 201 31 204 41 158 28 515
1638 2.022322312578722 0.88305837545219767 0.053146276751713059 116 101 93 0.80467623672743116 29 465 32 246 34 119 41 1144
1635 0.45930230571751801 1.2533294963574551 0.12634600334865456 153 125 81 0.66041268524627061 29 134 32 225 31 227 41 201 35 199 39 301 40 374 38 738
1634 -0.43754819501263392 0.25023171370280389 0.041333996211526287 204 199 203 0.26342590606784555 28 218 29 208 30 253 32 203 34 221 41 185 35 165 21 542 39 164
1632 -0.21860345549916066 0.13478478273721714 0.025009848011505659 202 199 202 0.62537118327421459 30 248 32 198 34 216 31 216 35 254 40 471 38 375
1631 -0.75492546278465267 0.12031149775589667 0.0074271383720250928 189 185 185 0.19897196090402405 29 203 32 189 34 173 31 188 35 191 39 190
1630 0.24291789261476721 -0.40134298780296018 -0.042569765225484994 191 170 141 0.20827365464263836 29 154 32 144 34 127
1629 -0.65795419949027567 0.70646799723448628 0.086266046972605204 143 114 100 0.48676075655037049 29 278 32 125 34 243 31 121 41 155 35 120 39 148
1627 2.0574727358244318 0.75035736050276958 0.051780864110307953 110 107 109 0.26491504893337947 33 40 32 89
1626 -1.0400650605278898 0.35118944314146128 0.040509336312631199 203 184 154 1.1619920398233341 29 98 32 88 34 80 31 58
1625 1.1771843481246105 0.23245448971856716 0.013145262327660246 174 146 116 0.75419709704832383 29 70 32 80 34 48 31 68 41 89
1624 0.10864814430268138 -0.48639691374640048 -0.032261456283739658 186 163 132 0.75907661828351314 29 62 32 76 34 69 31 77
1623 1.554801380252872 0.50894546919885952 0.050378137672980119 160 128 89 0.59269713049768402 29 30 32 28 34 28 31 30
1622 1.2654305073621124 0.50608408170232122 0.048577513967185154 157 126 93 0.47598485018439307 29 21 32 27 34 19 31 29 41 23 35 17 39 16
1621 -0.048945893222627657 1.0223169138074077 0.11489890824659341 196 195 197 0.75347394528460654 29 25 32 21 34 22 31 21 35 32 39 38 40 35
1620 1.6387803153907923 0.77623085021084992 0.06556002564771915 143 119 101 1.8461685202563971 28 567 27 574 36 769 33 447 22 439 25 411 29 471 28 422 33 445 36 449 32 653 32 655 34 607 31 619 41 680 26 552 20 466
1619 0.17183604625880183 -0.19167141204122626 -0.0066957444890675191 91 81 73 2.4550492417153791 22 684 33 322 29 382 27 689 36 435 28 224 22 377 25 384 27 337 34 367 41 463 23 371 26 306 21 398 21 572 20 407
1617 1.0816736920273942 1.4997836274400418 0.13073035230056282 163 138 105 1.5450264648614176 33 1064 25 954 29 1126 28 1116 33 1056 36 1228 23 1049
1616 0.19802099225165853 0.24330619518452754 0.032272997543092416 201 201 202 0.95334064698958232 28 333 30 343 29 336 28 320 36 353 32 319 41 596 35 406 39 558 20 353 24 655
1615 -0.52952510595725477 0.18661472294301265 0.039026358082107963 146 145 148 1.3072233233925827 30 919 29 916 28 861 33 894 23 806 25 867 32 731 29 1078 34 516 41 627 35 833 39 1013
1614 0.23965279556748292 0.94371693434239057 0.095559092210026272 180 155 126 1.6666417863579968 33 989 36 1009 22 1002 25 1001 30 1000 29 971 28 691 27 987 33 699 23 912 22 1000 30 706 34 604 34 605 31 676 41 1139
1613 0.90849858872197764 1.3122499714819911 0.14240154897415633 158 129 92 0.97698010345288544 36 119 30 150 29 264 28 106 33 106 23 91 30 119 32 160 34 137 31 131 41 233 26 363 39 303 40 408
1612 0.33229162075431834 0.25989822878843732 0.027686169451760959 176 174 177 1.5937414987256773 28 883 27 1025 33 841 36 925 22 751 25 761 29 862 28 680 33 555 36 946 30 866 32 1165 26 773 35 1049 20 732
1611 -0.50772076798387678 -0.050570467129454372 -0.0032279222788687625 141 140 142 2.2592583647772999 28 812 23 749 25 812 29 751 30 640 32 812 34 570 34 735 29 678 31 726
1610 -0.16212617226570744 0.82083347443908539 0.093608315292200719 170 169 173 1.3271883255526959 27 940 33 965 36 1017 23 957 22 969 25 1087 30 977 29 635 29 940 22 581 30 582 32 660 32 995 34 920 31 951 35 1008 21 438 20 852
1609 1.6336749916367634 0.80617117422677709 0.077762760478621712 176 150 118 2.0062781301314914 28 415 27 423 36 454 23 203 22 217 25 222 28 421 33 444 36 451 27 424 23 438 22 436 29 469 29 667 25 413 30 686 32 650 32 652 34 606 31 618 26 172 35 1052 21 290 20 239 20 768 24 400 24 808 19 240
1608 0.39860663719718697 1.3569077027273138 0.12137332373447074 150 128 91 1.8927524947747798 22 950 29 1167 34 1122
1607 -0.29770126344118325 0.21461369289996246 0.042296970304874448 130 128 133 0.11774618833885504 30 1124 29 1166 34 891
1606 -0.24382210755435593 0.41963753181863234 0.054769629724544397 205 202 208 0.28557301163571308 22 1044 29 1162 40 718
1605 0.23503983317152016 0.60215135430703071 0.033208105867199786 212 209 212 1.4028577292228022 30 995 29 1160 32 1038
1604 -0.21019993052547556 0.049723724198904834 0.017234839191529461 139 135 140 0.098215664136923911 23 1050 29 1158 32 769
1602 1.6838995969190067 1.3852072282688048 0.086829994111389086 104 90 72 0.58736985397640928 33 1082 29 1120 32 1141
1601 0.59987718902319442 1.3292680528211875 0.13473241428773816 152 129 99 0.37216979335615497 27 858 29 1105 21 959
1600 2.3432588039837019 1.6171872081619232 -0.2460369335740322 97 98 99 0.3906538205879887 33 1042 29 1093
1599 0.6353526305750592 0.046024977798228145 0.0064412825446074646 125 102 77 0.20709485199614253 30 595 29 1074 32 556 41 818
1598 0.72390902431500481 0.050268115069369762 0.0070302633350086251 144 120 94 0.1186588269592445 30 639 29 1073 31 879
1597 -0.27500892625363749 0.49722949226028879 0.065354441187731885 63 54 68 0.12556400836308312 36 1149 29 1071 32 1097 34 1035 31 969 41 929 35 1042 39 777
1595 1.4903241467116588 1.6501112825539483 0.1186985720230665 165 144 109 0.6370295657338102 28 1071 29 1046 34 1026 31 1071
1592 -0.17985587662321884 0.7329600760950078 0.057659760123907541 208 206 211 0.75289709882255917 36 1085 29 1016
1591 1.2858219427995299 0.47698991555117953 0.053060274531649923 118 89 65 0.27565885576010779 27 634 29 1009 26 631 20 868 19 551
1590 1.0689802196584477 0.32943208442070965 0.038271577752174456 120 93 68 0.092471105371424014 30 552 29 1001 31 972
1588 -0.12148464124856426 0.64431558934076893 0.0798768266122038 209 208 212 0.43526203547753017 22 993 41 945
1586 -0.26505933483606103 0.96279318659653668 0.10126134472285284 153 125 115 0.044264541871397813 30 999 29 977
1585 -0.077775357569165537 0.97941323344922881 0.10649458763233823 207 202 206 0.28170615096369134 36 1004 29 972 32 969 31 1094
1584 1.4840134312565514 0.61626658814243329 0.068840976899519526 136 104 75 0.081813416616214121 30 1008 29 937 31 911 20 460
1583 -0.45644860101209117 0.17196065449083059 0.029458725631442993 164 162 166 0.087833745023651932 36 921 29 919 41 882
1581 -0.30675441663390135 0.15184793071881969 0.043884780403343142 185 182 187 1.4632607594331306 27 830 29 914 41 879 28 906
1580 0.24879607663476416 0.073316291160235442 0.012313153816931056 165 143 120 0.24864271996436096 30 907 29 907 34 898
1579 0.037082404528085366 0.12548571774226003 0.019135297013041543 209 206 208 0.13339232103154586 36 977 29 905 31 515
1578 0.017711931267226033 0.13159636086616699 0.025125308356595676 144 140 148 0.10576599095417931 28 911 29 904 34 896
1577 0.10804544684669948 -0.021775373991348129 0.00061715700114431567 165 139 112 0.37962071674309267 30 900 29 896 34 750 31 1053 32 532 41 862
1576 -0.83313355935608913 0.19776424578341237 0.013534313628750445 140 114 98 0.40137840449121165 30 884 29 892 32 526 34 535
1575 0.14915320297766171 0.26476774071898795 0.035698628805491413 158 158 160 0.21795368360102266 22 1034 29 868 31 848
1574 -1.1272384468618633 0.51342113016791258 0.092989580732935603 210 205 197 0.59978623178784951 30 387 29 864 34 292
1573 -0.3875893710963238 0.30349674182971931 0.049872098203741944 148 146 149 0.29916961980691098 36 929 29 836 34 827 31 809 41 834
1572 0.3724767282062002 0.17555364516436103 0.010596725063423405 212 205 202 0.95147289866366769 30 854 29 835 34 823
1571 -0.21835378597331701 -0.34748282393071117 0.0090181473308159881 180 155 125 1.8303613951808932 30 824 29 827 34 806
1570 -0.033019129570926176 -0.33142183482995402 -0.034166836155366122 172 150 138 0.43842620274029376 27 777 29 819 26 732 21 656 20 514
1569 -0.61325717523319356 -0.12968599240352677 -0.020752838912609099 135 109 100 0.21316061352677682 30 1141 29 812 34 796
1568 -0.5718981787841374 0.017783457281125348 0.004008846788171436 173 171 176 0.022515045597306771 36 1224 29 783
1567 -0.14840103464298338 -0.0080332816240182847 0.011292909681895993 152 147 150 0.13299912169915362 30 790 29 773 32 773 34 760 31 749
1566 -0.7305481646594234 0.12798433128422471 0.010820003391393685 150 145 149 0.13982968072510024 30 785 29 768 34 756 35 732
1565 -0.51197402075610043 0.080895814866371846 0.015710697148714071 209 205 211 0.46043177648311234 30 903 29 767 31 1134 39 655
1564 -0.47291174871539687 -0.10661562870798305 0.0033946179416417133 206 202 206 0.54786520359409863 36 857 34 790 31 781
1563 -0.45860352184726727 -0.047338629938866672 0.0151917368181638 219 216 219 1.1241177056623577 30 768 29 744 34 733 41 755 25 809
1562 -0.70173046980778286 0.53338196441639008 0.07404061377447993 154 152 155 1.3311043690632163 36 1103 29 732 31 971 35 805 39 763 40 847
1561 -0.23418514162049825 0.43705159364116108 0.058945574777475376 72 64 78 0.18949964146981854 36 1134 29 729 34 706 31 981 41 1011 35 800
1560 0.52645406934075512 0.30077288692806781 0.029981287510130392 151 130 126 0.66048726585986106 30 1112 29 728 26 651
1559 0.24077103447072562 0.31073484783508931 0.039343151763236571 154 151 154 0.20251072941940218 30 759 29 722 32 1187 31 1144
1558 -0.78218822490306905 0.51973452111187546 0.063331989672742173 215 211 217 0.16718253275330328 36 1111 29 712 32 869 34 712 31 974 41 695 35 752 39 710
1557 -0.73167306750821159 -0.0011300856075648069 0.20410085100274539 203 194 195 3.0533758284141039 30 770 29 685
1554 -0.87053155972232843 0.48701735831474502 0.057178777037583742 204 198 202 0.17373246827049993 33 741 29 672 34 533 31 673 41 331 35 369 39 425
1553 1.4900777303574697 0.64113670603105422 0.071267769717194965 166 135 104 0.46326349108418169 27 433 29 634 31 908 41 1167 26 332 21 291
1550 0.33427753590409953 -0.078720166012184262 -0.0059368480077232316 143 117 95 0.24975491070602965 27 665 29 609 34 579 21 715 28 814 20 705
1548 0.20983134743646487 -0.29814099645712977 -0.028524827849162229 143 118 94 0.71898630417793596 23 515 29 589 41 729 26 726 22 771 35 634
1547 0.69187765458973294 1.748023291000212 0.10498054000399873 125 106 100 1.1937581692298682 36 189 29 582 34 1016
1546 -0.59804607288594969 0.1568924611879618 0.024652746643823352 205 203 206 0.62418194586218001 30 549 29 560 32 524 25 579 34 521 31 531 35 536
1545 0.38425038404720818 0.012139244302265872 0.0031713426242175203 147 123 97 0.21611044753626418 28 598 29 552 21 552
1544 -0.48540454334073835 0.2089020848957131 0.036921739857191833 174 172 175 0.88590037339462946 25 877 27 712 29 547 32 560 31 516 35 514 39 540
1543 -0.10712715368990938 0.99847447149934254 0.1125648090780329 207 204 207 0.58700523443963282 28 1011 29 545 32 1140 34 947 41 1052
1542 1.1509067566019915 0.36441321126276394 0.030273924882883378 164 136 101 1.2829973536700312 30 531 29 535 32 701 35 1007
1541 0.1076065165169246 0.54767596967804943 0.067409652002641748 203 202 207 0.18091933332619656 30 535 29 531 32 491 34 475
1540 -0.084684376778962234 0.65912549341563509 0.085318072488855007 204 204 207 0.61315994524027906 27 603 29 519 34 406
1539 -0.40790240976914838 0.72614811714804972 0.088503308442750089 207 205 210 0.26169856982770506 27 608 29 516 39 951
1538 -0.11166270388478303 0.69779299940464679 0.080710007556254529 204 204 207 0.091671049924290288 30 521 29 513 34 248 31 391 41 399
1536 0.84110532248920822 0.24901891799079606 0.024821299778503655 157 128 102 0.32279791813582864 25 311 29 501 26 407 21 343
1535 0.0044525382253929879 1.0351788432189051 0.11141916518012973 204 203 203 0.1609210648197677 30 475 29 468 32 449 31 417 41 363
1533 1.2533094978232053 0.5834101609148914 0.068476735026706814 136 106 81 0.25825682986643034 25 208 29 438 32 624 34 387 41 555 35 1024
1531 -0.32912312523645487 0.92567924800285362 0.097539331961774167 146 117 101 0.36092282059671937 30 574 29 433 32 455 34 430 31 423 41 258
1529 0.078183823293576538 -0.13034613377951246 -0.019768962575100441 135 112 96 0.73675416640430325 22 368 29 403 26 298
1528 0.3954864660715372 -0.17258628514314214 -0.019572960732565405 138 115 93 0.33213789672423172 30 644 29 400 32 384 41 502 35 677
1525 -0.18813983906621939 -0.22205540176097024 -0.019567203288088759 172 144 120 1.2457940110504921 36 376 29 360 21 611 20 528
1524 -0.49600359580317471 0.25755119403598503 0.040573260377720979 200 198 201 0.34605553486830465 27 555 29 352 32 333 31 309 41 301 35 258 21 687 38 499
1523 -0.32564340250165325 0.39552312046326543 0.049173184386357885 204 202 205 0.16529871875733423 30 340 29 327 32 480 34 462
1522 0.36861016433948807 0.14555047516982383 0.017285208455836337 164 134 109 0.52299967800370317 30 222 29 287 34 197 31 304
1521 0.95668256679048036 0.26433232752506763 0.031773490211777396 158 128 100 0.11177824851165592 25 176 29 280 41 433 35 441
1520 0.049287397656343379 0.45962549363840133 0.055703454941213995 202 201 206 0.25733412551321311 30 493 29 271 32 510 31 259
1519 -0.81519955328634897 0.60336200054252165 0.071906907964397179 159 136 119 0.23687412233205329 30 504 29 269 32 265 34 200 31 202 41 241
1517 -0.52454306139323548 0.79444834385609997 0.094586078654074979 155 130 111 0.6808981736565094 30 451 29 251 32 238 34 251 41 253 35 222 39 219
1516 0.25262285927463196 0.10257442626912368 0.015753701455118188 206 206 207 0.1350099477952191 30 226 29 246 32 200 41 304 26 264
1513 -0.44264186695654167 -0.33779909413562526 -0.04102297178834783 201 196 198 0.17480689208099934 30 200 29 182 32 219 34 176 31 208 41 133 35 132 39 179
1510 -0.093945345194202862 0.2320767732533468 0.037240514370260366 207 205 209 0.34653295116063676 30 182 29 126 31 148
1509 -0.67413451507728983 0.59964565969463612 0.072171944986192296 205 203 206 0.83847088266741077 30 274 29 122 32 122 31 118 41 159 21 815 20 605 40 308 42 312
1508 -0.31105868212496773 -0.72790563191886792 -0.046142719705763134 205 191 163 0.96624096546059035 30 190 29 96 34 65 32 100
1507 -0.50661501683086407 -0.13845887074972177 -0.010530044507905683 199 197 198 0.21954755052075189 30 112 29 87 32 95 31 91 41 98
1506 -0.22041318845806551 0.71196443554951949 0.09113844040645476 208 205 210 0.71912742776874328 27 78 29 56 32 57 31 53 35 42 21 104 20 95 40 111 38 127 19 87
1505 1.6920627303573024 0.78108789409992707 0.070273962281890173 158 130 94 1.0057868798653793 30 34 29 35 32 33 31 40 41 45 35 31 39 37 40 53 38 50
1503 -0.41834889380677182 -0.301909732242298 -0.028998951505444515 203 199 201 0.72347335025313164 30 39 29 26 32 38 34 24 31 35 41 29
1502 0.55468630831343546 1.5502631280608912 0.16381284847124672 158 126 86 0.087334973388352888 30 23 29 22
1501 -0.92745257046113871 -0.063438336121828143 0.015443739053808114 135 134 139 1.680980534064118 30 3 29 2 32 2 34 2
1500 0.53008196535871721 1.2526613044335189 0.16880570007716708 155 127 92 1.041786262287703 29 1 32 0 34 0 31 0
1498 0.4524064033018495 1.3889460913514946 0.13755032216746085 49 43 43 1.2002640742016681 28 733 36 735 22 946 25 914 36 700 30 958 32 610 34 644 31 555 41 706 21 958 39 941 40 746
1496 0.65482214622213153 1.7685940214314981 0.15290852987131801 69 65 70 1.4817545721133216 27 38 28 86 27 75 33 81 28 50 23 43 22 42 25 50 30 52 26 31 21 52
1493 0.65773874638773422 1.6789460728292793 0.16610703035617724 152 131 98 0.42023485888540774 36 94 30 94 29 77
1492 1.2543255152425892 0.42760239608955869 0.053204993206715845 175 149 115 2.612914720653035 27 614 33 450 36 515 23 504 22 504 30 517 28 487 27 476 33 509 36 521 23 499 25 528 29 526 29 696 34 693 31 1003 26 283 26 420 21 355 20 286 24 300
1491 0.78231573807640364 0.080613735612888648 0.0056389741420809127 77 67 59 0.13756451909583414 28 305 33 273 23 263 29 577 32 546 26 509
1490 -0.37169764803145255 0.45961748229006361 0.060928867473313358 213 210 214 0.41409525907825873 22 452 25 480 30 330 33 511 36 562 29 267 32 262 34 450 31 440 41 426 35 347 39 326
1489 0.51939982798647844 0.12950105449850091 0.026651482340731496 187 165 135 1.9768354888564457 28 291 33 319 23 306 22 311 25 324 30 353 28 296 36 366 25 328 34 305 31 291 32 328 41 666 35 852 21 194 20 355
1488 -0.49567298638673885 0.097423945632495484 0.02176371986335756 186 184 187 0.56039056684530042 27 541 33 272 36 662 23 608 22 560 25 271 30 398 28 302 36 365 32 302 31 282 41 262 26 541 35 240 39 243 38 486
1487 -0.18412421275003335 0.81142477586547446 0.095676457975487461 218 217 222 0.37590834937988404 27 305 23 395 22 389 30 442 28 417 33 385 32 408 29 432 34 380 41 375 20 824 40 643 38 558
1486 1.6420215025879195 0.68967204023385043 0.062289641967909912 183 153 122 0.43289463028008301 28 442 23 446 25 430 30 474 27 578 33 678 36 1049 26 326 21 432
1483 0.64544909810664386 1.7077314979501816 0.19022397960894391 149 135 116 1.1444808514179685 25 691 30 1128 33 658 29 1050
1482 0.22937878620276658 0.73647159870873669 0.081552732606882825 119 108 105 0.036578391328793279 23 1053 30 1110 31 906
1481 0.91379332689812465 1.6347551833140581 0.14360147369444404 144 114 85 1.2967732627577149 22 876 30 1104 28 1079
1480 0.2121620199653958 0.4373110025916751 0.053446382047186561 141 140 146 0.19140440178076618 23 677 36 1133 30 1070 29 1081 34 1049
1479 -0.35022903901526692 0.68990769776383942 0.087575083137620413 195 196 199 0.28828076707929545 28 1018 30 1051 29 1032 32 1175
1475 -0.017714859128247717 0.68696037322367431 0.083035397112987824 152 151 156 0.072496029670496148 25 1015 30 993 29 1020
1474 -0.35356136340149996 0.77108291546077024 0.089467731489983535 99 95 106 0.1736277265485163 28 987 30 990 29 1011
1473 -0.33549011731692591 0.77026192993248743 0.089091701790775704 211 209 215 0.21382548560501888 28 986 30 989 29 1012 32 727 31 905
1472 0.15715434168764658 0.67694967927113514 0.079128431656196013 199 198 203 0.1263478032069405 28 1019 30 986 29 1018 34 985
1471 0.14691417442262417 0.75261023699727392 0.093382050496442673 201 200 202 1.1059051450317381 28 988 30 975 25 737 29 942 36 1080 35 1016
1469 1.5727058409806194 0.81038421442658159 0.079058894120449141 120 93 64 0.14749600007104813 36 1075 30 940 29 970 21 587
1468 0.24977956417130504 1.1260338628679343 0.12159310286619046 89 67 48 0.53544596341663131 22 927 30 938 29 1024 32 1132 34 935 41 1058 35 1076
1467 0.35590616473752407 -0.0071490645202417213 0.0004799857549050001 122 103 80 0.10119616644014441 27 822 30 922 29 888
1466 -0.28834568317813525 0.17134983482163746 0.035965932563038608 169 164 172 0.52579289760957792 23 799 30 911 29 899 32 891 34 900 31 892 41 824
1465 -0.46994614121214467 0.35603264425749548 0.050910425798063319 192 190 193 0.23322998513925025 27 1026 30 882 32 688 35 403 39 836
1464 -0.45632950568781261 0.41749837508817023 0.055955766207960889 127 125 127 0.17111361901229794 36 777 30 867 34 833 35 737
1463 -0.87262167793195511 0.43972000944441891 0.050125133426346877 198 196 199 0.15103946710739519 28 747 30 847 34 814 41 578
1462 -0.90730688914514523 0.44877667994320447 0.0490382829150557 128 126 128 0.43449462295784552 23 714 25 740 30 845 29 869 32 843 41 1174 35 865 38 591 40 387
1459 0.046715915839613487 -0.20123492374670301 -0.014477915478532213 126 108 87 0.23859188089451103 25 787 30 775 34 738
1458 0.18605391133970645 -0.16109502674849155 -0.01111303210537788 159 136 108 0.25256183472256533 33 1116 30 765 34 728
1456 0.35204929226366605 0.31823892852269225 0.032601693221439486 139 138 143 0.89482166423256193 36 927 30 746 29 1163 34 697 41 979 35 750 21 806 20 601
1455 -0.7481781584465339 0.56739271585347606 0.06791596381754289 196 194 196 0.2378349810626938 23 684 30 745 36 755 32 503 34 439 31 474 41 458 35 443 39 456 40 690 38 535
1453 -0.43310502218084257 0.51066543852215474 0.067070537718088755 144 143 147 0.27366170684013191 23 689 33 720 30 740 31 609 26 658
1448 -0.13825871568359158 -0.077574744489860986 0.00030881600883695369 117 116 123 0.54583715469215521 25 592 30 646 34 557 31 507 41 506 35 724 39 698 24 839
1447 0.18122179871085337 -0.12661459002018141 -0.011374517492635766 128 107 84 0.18070234086656134 33 640 30 645 41 747 21 602
1446 0.76312574295587687 0.096672129338756574 0.0085184068428549257 152 128 94 0.22441878964494469 36 669 30 630 34 499
1445 -0.51981983064008075 0.1689320370332193 0.027999944427660461 203 200 204 0.54429085002825728 28 649 30 604 29 556 32 567 34 517 31 270 26 805 35 506 41 629 39 551
1443 -0.13077225636614015 0.66799935637345331 0.12401172227338236 151 150 154 2.0914515714361435 33 681 30 590 26 933
1441 1.2398045922634995 0.6041226252695483 0.022635042467670112 153 123 84 0.17101273227090674 36 754 30 572
1440 1.0777105148282127 0.30875242198634273 0.038179801368575642 147 121 82 0.855200785014811 28 669 30 554 34 656 23 584 41 1008
1439 0.91333879728567213 0.20048718448794173 0.018939591589107491 152 125 88 0.42719019861663166 27 257 30 510 21 219 26 240
1438 -0.12741885473078254 0.97323329136703285 0.10650413381446582 199 198 201 0.38365937193200461 28 467 30 479 29 257 32 245 34 225 31 252 39 292 40 372 38 359
1437 -0.010971041354291999 0.72244581150253184 0.09374501437058344 194 193 195 0.80503371333629148 25 415 30 450 29 444 34 388 26 282 21 441 20 829
1436 0.21407238184095173 -0.15589759102769765 -0.01387011806507738 144 124 99 0.3095053976061658 27 691 30 418 34 550 26 464 21 394
1435 -0.49703596033612629 0.0045881689424712435 0.009823860626004639 190 188 191 0.26719843186836567 27 673 30 417 34 361 29 622 31 355
1433 0.51527155898487775 0.094559903666066744 0.019505350808433977 125 103 83 0.4705612642079296 36 367 30 359 34 506 31 575 26 502
1432 -0.11403337454907253 0.29264659201181542 0.052791638808977401 195 194 196 0.27517545348745243 28 322 30 349 29 294 34 265
1428 0.66385551777144869 0.0024241272099899402 -0.00015418707200560815 153 131 110 0.14531917826131455 25 296 30 303 32 341 34 312 31 277 41 626 35 522
1427 -0.49538264908453622 0.25769064176604284 0.039281832368270805 194 192 195 0.33686965982492328 36 357 30 302 39 255
1425 -0.79296530746614458 0.58290503242709013 0.073048456310188886 193 189 189 1.1137485528876703 33 488 30 272 29 270 32 120 31 117 41 87 39 158
1424 1.4248766658072534 0.60127866848036893 0.067486375633152185 146 121 80 0.37059689844641885 23 210 30 255 26 192 21 183
1423 -0.30905397843945015 -0.67650338917252473 -0.1124872570966665 204 191 178 0.978036564539293 25 126 27 175 26 275 21 384
1421 1.8903727972973037 0.65764397553053255 -0.1348890231312033 57 58 60 1.0336969839126353 28 98 30 158
1420 1.6914738071500717 0.91661907495514272 0.068570878968914784 148 120 80 0.48516837657594802 28 135 30 155 32 451 31 420
1417 1.1004411352145234 1.8113998164387572 0.054451856545667532 185 153 131 0.86004981655752732 36 64 32 104 34 79 31 110 41 102 35 333
1415 -0.25753277291638482 0.87925109222999487 0.11096719017582096 197 195 198 0.8766972745545859 30 32 29 31 32 29 34 23 31 31 41 24 35 15 39 25
1414 0.29253636003796574 0.18416228210090277 0.038076413151986718 187 187 189 1.5393015556143019 25 30 30 22 32 25 31 25 20 34
1413 -0.41185034089864864 0.080257885528744785 0.038552533070323934 190 189 194 1.486776372742431 33 23 30 17 29 16 31 17
1412 -1.0072710965707654 1.3347870138287727 1.3162386573773943 107 107 111 1.736064229816384 36 2 30 2
1411 1.6995008662144413 0.89275600660376742 -0.018206792125764617 129 103 68 0.68045868640990981 33 0 30 1
1409 -0.39397372149314658 -0.42358347383452033 -0.04930508203897141 72 68 70 0.27539337551019455 28 368 27 319 33 334 23 314 22 331 25 333 30 196 29 289 32 361 34 165 31 330 41 318 26 268 35 284 21 373 39 493 20 423 24 435
1406 -0.59655152653160337 -0.2913194002618702 -0.071935163043435973 127 126 129 0.084048427962204728 33 816 25 1111
1404 0.93719948528141916 1.3777101494070765 0.14240893673485616 101 83 79 0.55075385336122762 28 459 33 651 36 477 23 422 22 418 25 433 27 209 36 184 30 269 29 292 32 437 34 233 34 1067 31 403 41 401 26 597 35 320 21 433 39 924 20 803 19 530
1402 0.69574441482615645 0.11978400455913898 0.012716409254080569 192 172 143 0.27892691427535171 36 984 23 804 25 563 28 552 27 326 33 592 22 313 29 875 30 879 32 545 34 825 31 811
1400 -0.082094310877051158 -0.29774278770923135 -0.029788102280256357 190 180 169 0.49867195451401769 25 797 36 659 23 738 26 452
1399 -0.48186994133022443 0.30993928482860633 0.049453133021308687 108 106 109 0.88529780705266303 33 477 25 517 29 213 32 204 26 518 21 497 20 743 38 417
1398 0.66830919744524708 0.06902646254876682 0.0040849987941046339 91 81 75 0.49151014098560025 28 647 33 277 36 315 23 261 25 269 30 356 32 553 34 505 31 664
1397 -0.34410371450519556 0.21256751373711283 0.038353752984495192 179 177 180 1.5293600799030522 33 306 36 347 23 283 25 300 33 291 36 341 29 245 32 188 34 220 31 211 41 184 26 503 35 257 35 259 21 701 39 253 39 523 40 475
1396 2.0113329837790666 0.83385347494855311 0.02645456715715834 180 157 128 1.7233201371903586 27 878 22 891 25 958 33 998 23 432 22 431 30 927 26 555 21 884 20 812 24 331 19 287 27 200
1395 1.1754984879715258 0.46858787911875299 0.053118904676386164 84 70 55 0.27688526200951091 28 481 27 480 22 498 26 620 21 460 20 891
1393 1.4996386123401773 1.6526037555269357 0.094003069476866916 117 94 78 0.68093929490239535 23 885 22 869 25 1106 28 1070 36 1184 30 1034
