# 3D point list with one line of data per point:
#   POINT3D_ID, X, Y, Z, R, G, B, ERROR, TRACK[] as (IMAGE_ID, POINT2D_IDX)
# Number of points: 332, mean track length: 6.48665749656121
2735 -0.82253260417360663 0.011139442506194447 0.41021491264688048 239 214 189 1.1419764282303457 35 510 38 362 42 573
2730 -1.1760909526241936 0.57600518465501305 0.30177123871561984 231 209 187 0.49793073473568406 35 408 38 309 42 307 39 262 45 296 46 204 44 266
2728 -0.79804841759366307 -0.013746948210156068 0.15376189059933196 134 131 144 0.25040746381039475 35 503 38 297 42 295 46 256
2707 -0.80302281913623996 0.64133940446070059 0.1322293558285404 153 122 94 1.7433870343321802 35 0 45 1 46 1 43 1
2706 1.2986061995704459 0.29374943791502428 0.47212425309567374 190 173 144 0.5358852150635548 20 794 19 438 18 329
2701 -0.033064750422059141 1.0810958638745565 -0.035506018660292404 215 213 214 0.99083252083029227 29 999 25 573 27 630 23 670 28 993 31 938 37 1086 22 845 37 1083 24 816 20 691 19 563 29 150 25 193 27 146 32 124 23 199 26 202 28 218 33 257 30 128 34 166 31 121 37 125 40 137 22 196 48 153 21 296 41 154 24 263 20 244 36 182 35 183 42 414 18 241
2695 0.89716791289049114 0.062339151401892265 0.52044694732213137 112 100 104 0.15100467158195702 20 678 19 464 18 276 15 219
2685 -0.19314902541384177 -0.28526985817342321 0.017669552330608851 0 0 0 0.41636365031319994 30 199 31 183 34 228 40 355 41 472
2657 -1.1523899757972749 0.51356882740562271 0.37836971056687574 172 142 119 1.815777651424616 36 677 35 763 38 389 42 381 45 251 42 560 46 246
2654 -0.049090907129555439 1.3463535275044343 0.473428012245938 142 123 104 0.42846641585576445 36 825 35 740 38 286
2651 -0.020224742069194723 1.2886456966604212 0.12234889147439282 73 59 58 0.1866048917122467 36 826 35 728 38 289 42 547
2648 -0.44463935358126921 1.0806468139124077 0.43389939734944316 150 123 104 0.15486360269733493 36 806 42 243
2644 0.29151777801237511 1.5314551558509726 0.31903183013992154 89 71 70 0.71080928407868782 36 732 35 691 38 542 42 498 39 464 45 400 43 356 44 342 47 331 49 456 51 413 50 409 52 304
2635 -0.75775730433455268 0.48876335151582651 -0.12051302189391568 180 175 178 0.24625134460747908 36 668 35 612 38 403
2634 -1.1036064030602071 0.41008520282215954 0.36904341114295069 225 200 171 0.94867819144923482 36 561 35 600 38 303
2632 -0.44318251065264491 0.72531589344333913 -0.078691280825663568 181 175 180 0.70567877926550115 24 650 33 1056 35 570
2626 -0.77418073047455338 -0.052224085477677706 0.22458928125399449 161 151 152 0.4012358337055062 36 501 35 461 38 306 42 326 39 316 45 244 46 257 43 347
2624 0.90145828608390544 1.6088531372577368 -1.1383717930344974 98 102 103 0.97759061836095851 36 493 35 436 42 507
2616 -0.42873658861004177 1.0115655453829988 0.076645835576056781 64 52 61 0.6355371534136639 36 335 35 355 38 244 42 238
2614 -0.61085947504014759 0.88480917148017368 0.042704404205988478 151 126 110 0.21930716124707181 36 638 35 323 38 320 42 253 39 283 45 219 46 237 43 251 44 247 47 277 49 341 51 405
2608 -0.034264788913260402 1.2716665460638878 0.049215615934217721 86 66 64 0.22514811692324072 36 832 35 290 42 264 38 504
2604 -0.25070039956910578 1.1358081771985025 0.098680008734362029 69 50 62 0.54341824557103791 36 252 35 243 38 252 42 205 39 205 45 159 46 133 43 143 44 162 47 190 49 230 51 239 50 355 52 543 52 546
2599 -1.0711806516327025 0.47395289474244784 -0.19117485797736006 190 165 132 0.21234410079996047 36 235 35 208 38 180 42 170
2598 -1.1407255426339069 0.38978245256498945 0.37300353780584949 225 210 183 0.2105091061769456 36 229 35 203 38 174
2592 -0.62946129230334913 -0.2683457561309347 0.22624410405796894 242 219 193 0.05351004350083477 41 273 35 162
2588 -0.64423184523929788 -0.23910513185138718 0.24740066106855738 137 141 162 0.73360646543694208 36 125 35 144 38 119 42 89 39 177 45 134 46 127 43 125 44 194 47 151 49 183 51 121 50 163
2586 -0.41400562321121898 -0.32717673334737263 -0.027782791694139636 175 168 168 0.57280992669974573 36 97 35 142 38 195 42 293 39 322
2582 -1.1868332588971262 0.48894151777350037 0.37149535071155193 140 134 137 1.3420842664867199 36 153 35 111 42 152 38 181 39 107 45 93 46 88
2573 -0.070391684150753697 1.257962461676138 0.1920999996358955 153 126 108 0.5961784965214274 36 49 35 49 42 28 39 29 45 14 46 19 43 25 44 19 47 19
2571 0.86014586523924075 1.8995936848800508 0.77728800792220198 227 199 203 1.7981214350604624 36 46 35 42 38 23
2568 0.19921822562657365 0.15182785654379741 0.098443594325881817 181 177 179 0.97811454188097835 36 15 35 17 38 27
2566 0.8768956698861895 1.6036033847826086 0.050547901721093913 114 87 70 0.91538545712855846 36 8 35 5
2565 1.5169085893933683 1.4072690848280418 0.010573766874903551 141 140 145 0.64390238353069729 36 6 35 4 38 5 42 5
2562 -0.19572957568955363 -0.56619118973246019 0.026946226135333623 160 138 123 1.0113948554126873 29 157 27 194 23 128 28 125 30 140 34 140 31 169 37 239 40 193 21 157 41 502 20 326 36 525 48 465 41 624
2554 0.55739575053649615 1.7309600057648564 0.45012398014005794 111 91 85 0.48676129702627902 41 570 36 773 35 669 38 493 42 518 39 458 45 359 46 361 44 413 47 404 49 427
2551 0.23795315992687294 1.4510661214580436 0.082671328228650892 101 79 83 0.42145263463581506 41 918 36 728 35 640 38 547 42 544
2550 0.22805585389998795 1.4891897973273645 0.31779380526116452 96 75 82 0.41071781072802577 41 1015 36 725 35 641 38 546 42 505 39 472 45 392 46 379 43 325 44 180 47 272 49 447 51 411 50 407
2548 -0.095327217004112008 0.2827382798078551 0.0059064674405661238 92 85 89 0.16488607036654629 41 837 36 683 35 582
2546 -0.59112065243077261 0.88718139611491775 -0.0085561134766767577 98 82 81 0.45551274445088918 41 996 36 635 35 332 38 318 42 228
2545 -0.57194141644904672 0.90591306114481362 0.0081735116260800433 148 131 116 0.2159292734681986 41 1000 36 633 35 313 38 285 42 431 39 398 45 335 46 271 44 308
2544 -1.0791000199928766 0.48422970284080769 -0.17145639947640795 187 159 130 0.29863754738925491 40 1024 36 584 35 751
2542 -0.13964655329169751 -0.43290562218928652 0.037500189709870096 151 135 129 0.39068778393925174 21 665 36 538 35 453
2540 -0.32967610787757429 -0.67849681135389117 0.0064885659357094561 199 185 155 0.25835158316935286 41 617 36 521 38 366
2534 -0.71705807373859987 -0.09969469825792468 0.082215796557921106 231 212 200 0.39599197135582304 41 475 36 444 35 456 38 349 42 365
2519 -0.61202985470798565 0.87574044945806495 0.022377349347011272 88 67 78 0.65365755780993862 41 355 36 278 35 334 38 238 42 227 39 284 45 217 43 250 49 340
2517 -1.1228044785587601 0.54738732811759383 -0.03277279012428537 218 196 175 0.45149316744537221 41 418 36 244 38 186 36 671 42 302 39 355 46 244 43 270 44 237 49 444 51 463 50 323
2499 0.31506951311613662 0.22197376788270282 0.07580599546653799 180 174 176 0.76434178007300591 20 32 41 32 36 42 35 69 19 39
2488 0.62291267569568487 1.3284295818273566 0.041562550238642443 186 176 147 0.56376700014077363 27 949 20 816 19 509
2486 0.033375123439923271 1.0443713922997289 -0.031880601475889642 179 171 170 0.20551754694311297 24 842 20 690 19 562
2480 0.44565180912684599 0.23158834398106742 0.10345381670143489 183 177 161 0.230184832549893 24 726 20 565 19 501
2477 1.9596575234003026 0.85577044751340758 0.6709388107283436 69 54 35 0.24396653991852449 24 808 20 471 19 319
2466 1.1325166607756771 0.58426229568221721 0.19847014438046093 194 177 142 0.85502549513475401 23 214 20 295
2461 1.765683168984276 0.63524140779813854 0.29676960989896639 190 168 137 0.10594724386363101 24 270 20 197 19 199
2440 0.057691964168604115 -0.46603384840036499 0.10155335264015361 229 215 190 0.2833245140625224 24 13 20 15 19 18 18 14
2439 0.10131526035286137 -0.51957369145470411 0.20695316246793752 190 169 131 1.5581774656477172 24 25 20 14 19 24
2425 0.23592475437681226 0.91966444176549 0.011801001564272329 200 182 152 1.3226895880523486 34 974 24 876
2405 1.5360347471223079 1.5313423117029976 0.16824569758361138 192 173 146 0.11259087203053275 21 560 24 488 20 424
2394 0.62728320384286584 -0.14520316874256792 0.21425067130532202 210 191 153 1.521684241354017 25 833 24 404 19 156
2391 0.65081045774254942 0.048394852497760932 0.13315166921511903 200 187 157 0.40319673684645946 21 205 24 379 20 383
2357 0.14138371510068543 0.63024718625564424 0.030636726031461559 142 140 143 0.3939155867483814 28 620 41 982 24 843
2356 -0.41380715853727024 0.66591262807664287 -0.064182249409253919 185 181 186 1.3769273126373855 27 1049 41 977 35 576 36 613
2355 -0.34951859309235922 0.61551422169556247 -0.050350924670453039 88 77 93 0.24976685956854286 40 957 41 969 35 524
2353 0.030536554932135862 1.3173162270244891 0.12762080870417575 87 72 74 0.19188327064668834 48 907 41 925 36 405 35 288 38 274 42 313
2352 0.19629378375499651 1.4838880585955243 0.41128543292036523 104 88 84 0.39312502797693899 48 1064 41 910 36 723 35 642 38 548 42 393 39 426 45 273 43 297 44 333 49 469
2351 -0.24519888694292308 1.1262266104480749 0.028905005702263953 89 77 79 0.20540000389638755 48 897 41 874 36 389 35 302 38 261 42 382 39 415 45 352 46 178 43 163 44 226 47 241 49 399
2349 1.3313917167272238 1.6636818350882099 0.12995271591699417 0 0 0 0.39271452675587304 25 901 26 1049 28 1017 32 1188 31 1027
2348 0.43141612689447262 0.278790706354896 0.093329571663275573 166 163 165 1.1614498780837874 48 738 41 702 24 618 20 814
2347 -0.55323512131402275 0.91546348935166322 -0.0022295681072354301 87 75 82 0.54220837310726444 48 914 41 669 36 362 35 328 38 198 42 239 39 280 45 223 46 160 43 155 44 119 47 266 49 216 51 230 50 223 52 427 55 436
2346 -0.336505946707157 1.0641649085851634 0.021636840256473139 87 70 77 0.45488560013251922 48 892 41 668 36 386 35 241 38 248 42 240 39 206 45 161 46 179 43 144 44 170 47 177 49 211 51 177 50 243 52 530 55 466
2345 -0.70039572954672624 -0.20633058079687519 0.44840661273103632 187 166 135 0.28691119267356197 48 670 41 641 36 441
2344 -0.46012728725408664 -0.41783240276531697 -0.057346751803789821 158 142 106 0.45510587686257309 40 772 41 626 36 526
2342 -0.42029601049723719 -0.68438561924440877 0.50478813611213558 246 218 200 0.45292396743685026 48 655 41 622 36 523 39 328 45 268
2341 -0.53293355830799372 -0.35763906257670541 -0.050636553423611924 239 222 196 0.28110555616285904 40 766 41 580 42 361 38 374
2340 0.82642316365963009 1.9134069031203054 0.39844532149012224 162 135 114 0.25925579098853518 48 941 41 576 36 339
2339 -0.47865716539947173 -0.61319913088800271 0.54860517929498664 217 210 192 0.94258184160087588 37 541 40 773 41 501 36 261 35 224 38 145 39 178 45 137 46 131
2338 -0.18866597763309489 1.1717643858305633 0.10459685796988852 81 66 64 0.27293846024628593 48 898 41 488 36 381 35 298 38 256 42 276
2337 -0.85992061474353332 0.010096943981850737 0.45522182181034121 228 224 212 0.8083223481404852 37 743 48 480 41 483
2336 -0.89997306585771397 0.63111831424452891 -0.14398679329857295 125 103 79 0.14223458927807645 40 962 48 789 41 446
2333 -0.50315794086119525 0.95658922180937833 0.073355830252985671 82 70 73 1.2024265918145778 48 921 41 407 35 333 36 279 38 242 42 233 43 259 39 406 44 305
2332 -0.39765104109116456 1.0217987197727916 0.009975952097704216 85 71 81 0.78051486119007651 48 900 41 403 36 337 35 349 38 265 42 200 39 275 45 167 46 327 47 360
2331 -0.26799079071098519 0.29436174565693884 -0.017787708159976753 161 160 162 0.11633426958494131 29 323 41 402
2330 -0.9486061419486852 0.42865536120769354 -0.16517306650061264 187 180 173 0.11981478442253661 29 1109 37 642 41 387
2329 0.0026341862116700532 0.62201386285702465 0.004548973220262667 187 185 188 0.11760023904474928 23 492 26 487 32 464 41 376
2328 -0.56144723676438191 0.92729948152545383 0.090626485930605793 90 76 83 0.36183500448723688 48 915 41 350 36 353 35 326 38 272 42 249 39 279 45 224 46 229 43 156 44 215 47 255 49 329 51 362 50 222 52 423
2327 -0.58421877590321802 0.90232123971599265 0.018977498115456182 156 141 129 0.60952308663218113 48 611 41 343 36 208 35 185 38 163 42 154 39 200 45 164 46 161 43 140 44 118 47 132 49 174 51 228 50 224
2326 -1.0698343309945892 0.51545167536533942 -0.17593281314843784 146 126 97 0.50507868236388587 48 378 41 320 36 147 35 423 38 185 42 174 39 171
2325 0.028901463954920326 1.3834763646001487 0.33945845222000015 81 75 91 0.98284776124621764 48 554 41 306 36 181 35 173 38 157 42 143 39 102 45 73 46 63 43 56 44 56 47 62 49 75 51 95 50 86 52 89 55 131 56 373
2322 0.38238779062561035 1.5007127447016144 -0.008999004650830103 136 112 81 0.37619911787669275 48 210 41 207 36 190
2321 -0.036784391010086182 1.3082086902014263 0.29409343118459996 75 71 100 0.6762637483432834 48 303 41 200 36 134 35 118 38 108 42 105 39 75 45 61 46 51 43 55 44 55 47 63
2320 -1.2058604503662207 0.55646951593526739 0.36955704411226475 159 160 162 1.2752272986586524 37 201 40 607 41 173 38 131
2319 0.047053049535244529 1.3407649729000723 0.18802551128153003 162 147 125 0.35493072506668544 48 302 41 160 36 108 35 93
2318 0.036110190292499122 1.3781860161404382 0.31041550420074882 70 70 97 0.36452284958539566 48 202 41 152 35 125 38 110 42 108
2317 0.92343903990452014 1.4281459484418653 0.09511697541646752 139 115 80 0.96583615448891003 48 111 41 151 35 174
2316 -0.65797579009255702 -0.20924946582747481 0.28606707751965477 228 216 193 0.62070377894145135 48 179 41 135 36 124 35 82 38 71 42 70 46 52 43 47
2315 -1.1569094083079787 0.42211036495385168 0.32916769206984819 175 150 111 0.78349968442265128 48 168 41 120 36 130 35 113 38 127 42 94
2314 0.68400783198078086 1.3792755389876401 0.056824247481363721 141 114 78 0.7692541675516118 48 105 41 115 36 136 35 178 38 218
2313 -1.1456572062623298 0.5920672415141095 0.24008501677811309 171 155 131 1.8878613820014836 48 110 41 103 36 56 35 40 39 59 46 58
2312 -0.67641118051541693 -0.19001112043356785 0.11710584222940087 136 143 163 1.1113106087805833 48 87 41 97 36 95 35 83 38 72 42 71 39 176 45 133 46 126 43 191 44 288 47 204 49 296 51 261 50 306 52 344 55 374 56 412 53 414
2311 0.30500377816165225 1.0210470998276371 0.030708147762824239 125 97 75 0.4364952107840378 48 44 41 71 35 96
2310 -0.67841428032816653 -0.25088981789759579 0.4258472149314384 231 215 189 1.7769562442858358 48 62 41 62 36 30 35 24 38 14 42 8 39 13
2309 -0.013194262883030217 1.3358320788407567 0.26737087184765307 84 87 104 1.6327180562892187 36 37 35 38 38 36 42 26 39 21 45 16 46 20 43 24 44 29 47 21 49 25 51 37 50 27
2308 0.084052921362093636 1.3919757018741425 0.19940404948699822 160 140 123 1.087570876595594 48 69 41 44 36 22 35 39 38 37 42 21
2307 -0.39780392154623212 -0.29297681178312551 -0.018860189901815663 183 182 182 0.62862721385567633 48 21 41 28 36 60 35 66
2306 -0.66325030449361133 0.740545827502885 -0.11995855481781614 150 125 94 0.56803307186529117 48 16 41 26 36 16
2305 -1.0049209622255848 0.51053361744867443 -0.1687823015924412 154 131 100 0.78683220935462383 41 8 36 9 35 8
2302 0.82707632587211177 1.2409955961519987 -0.40401664748428112 131 131 133 2.4757507553768665 48 1 41 1
2301 -0.13394451410041436 0.082710083351505009 0.014583192739323125 149 148 149 1.9408387657405772 34 35 37 39 21 49 22 43 32 65 33 83 30 65 48 56 24 54 19 61
2300 0.077803004625366101 0.67794029237446241 0.01817342474800962 150 149 152 0.63570598608853779 23 404 28 418 22 603 21 402 29 445 25 631 27 404 32 448 26 406 48 591 41 950 24 825 20 770
2299 1.4998092159258953 0.7150074637718622 0.24791758140197542 158 131 99 0.61554984032791582 25 428 33 703 37 957 31 910 21 430 23 397 26 394 28 429 20 733
2298 -0.15996851056031694 0.060933247072265037 0.0077655552810843992 200 198 201 0.40210747690932841 22 787 48 542 21 514 30 318 37 278 40 265 41 246 36 593
2297 0.024132002109243822 0.50500748310780041 0.01907397487405732 216 214 219 0.43716277201582754 28 525 22 475 21 493 29 540 25 510 27 503 32 556 23 602 26 616 31 485 33 486 37 338 40 635 48 414 24 663 20 563
2296 0.073203268200110916 0.7729298569168227 0.0065132020860615841 217 215 222 0.31642294956310935 25 374 22 352 21 357 29 256 27 252 32 276 23 392 26 378 28 400 33 439 30 434 34 411 31 252 37 376 41 360 19 444
2295 0.21315561884695566 0.47478205225877845 0.059520834688016055 207 206 211 1.1180530454228688 25 441 21 255 32 262 33 485 30 485 34 499 31 487 37 473
2294 -0.50696877402045004 -0.2594112112514293 -0.038893519223150777 136 117 108 2.335060641005331 29 363 27 248 21 657 22 728 26 770 27 812 23 736 33 833 37 586 40 802 48 659
2292 -0.43931885389165903 0.32520610748542034 -0.05211119713693968 178 173 176 0.27976537473136276 29 297 32 530 33 355 30 291 34 206 31 189 37 192 40 234 22 521 48 171 21 679 27 473 23 476 41 258 36 570 35 418
2291 -0.13573865053256348 0.025778545736232866 0.012107879320327961 210 206 211 0.60134428437636256 30 322 34 304 31 281 40 259 32 217 48 238 33 402 21 518 25 251 27 572 28 295 37 283 41 546 36 430 35 488 38 407
2290 -0.25916762285647738 0.0098318295680243639 -0.010030179947899634 204 202 205 1.9376200320776051 33 407 30 204 21 509 30 197 33 292 34 201 31 161 37 187 40 177 48 193 41 240 40 166 24 696 36 427 35 370
2289 0.20329809246148522 0.45005748233466758 0.051716296685263979 162 159 165 0.28087883667168589 29 745 27 1008 28 746 22 649 21 821 40 572 48 775 41 742
2288 0.19221213923319824 -0.067772365937061402 0.07172219141166597 188 165 136 1.3479261019720457 27 616 32 633 23 538 26 545 33 674 31 575 22 531 21 526 27 171 32 253 23 355 30 295 34 312 37 290 40 276 48 534 24 700
2287 -0.28397185433748939 -0.40185214212366516 0.0024173602502196856 158 137 117 1.0556896640537867 40 196 48 288 21 193 29 103 25 130 27 92 32 111 23 93 26 98 28 91 33 113 30 92 34 96 31 85 37 95 40 95 22 115 48 121 21 118 41 127 24 125 20 141 19 369 18 155 18 389
2286 0.42161216586108685 0.41015095029847948 0.084530434565162349 214 212 217 0.2796397245009844 25 446 27 458 32 297 23 248 26 450 37 431 40 600 48 449 21 337 33 488 31 494 24 380 19 270
2285 1.4552860872265918 0.7381777780746388 0.24016286397150602 183 158 127 0.89011187101712119 33 948 22 830 21 946 29 572 25 579 27 677 23 444 28 586 22 570 24 311 24 786 20 731
2284 -0.39504294566957099 -0.31829536948313231 -0.0087581369361470346 135 134 136 1.9511257942107714 22 724 27 331 32 385 23 325 28 335 21 378
2283 -0.38418618676743377 0.52647312234598775 -0.059020137077713218 205 202 206 1.4156296885969184 28 28 22 26 21 32 30 19 31 17 37 15 24 44 19 104 38 47 39 82 18 73
2282 1.8905723106036416 0.76027571979662401 0.28497638750405085 121 104 86 1.3689680212941127 22 104 21 126 31 950 40 1165 25 222 24 135 20 109 19 99 18 85
2281 1.1179337836241703 0.51274976479027423 0.2109589638940231 181 159 127 0.034125979782383839 22 876 21 990
2280 1.4163562817563502 0.69984866160829018 0.24102683257865767 155 127 104 0.30839554038089961 26 970 21 952 24 781
2279 1.5455365771195746 0.6813399797286952 0.2563268810632463 185 163 131 0.30199872163447133 25 997 32 1055 21 947
2278 0.55336650380712382 2.0201775173759913 0.047193769538602492 191 178 178 1.8882493562027458 22 971 21 923 24 556
2277 0.7766259912740473 1.5630620236838582 0.058044851530800384 178 166 150 0.23491642886874536 22 590 21 876 24 878 20 466
2276 -0.62808835314867972 0.70695672594848624 -0.11420783838540952 177 159 156 0.4701603218208148 22 469 21 855 24 673
2275 1.1470470099853847 0.22692756750732007 0.48200728372349411 160 142 113 0.43333148899940338 22 767 21 816 24 603 19 416 18 300 15 259 14 227
2273 1.2667250603684774 0.48617957895721198 0.22231141340680763 185 163 132 1.0825350498009569 25 601 21 797 24 869
2272 -0.13587765505392782 0.76992084710582653 -0.0042101850407461894 187 185 189 1.2894969975558612 23 604 25 973 21 761
2271 1.1907039285842971 0.40093401371411863 0.21424045891354168 145 122 98 0.13104605410243431 22 938 26 726 21 758 24 835
2270 -0.026950497090659109 0.79290957696992315 -0.0093789805296601858 180 180 183 0.28131364378015111 22 871 26 578 21 755 41 997
2269 -0.108383604335793 0.82252626341303481 -0.026343175596638457 192 189 194 0.74097238117737918 28 684 21 753 41 990 24 880 20 790 36 640
2267 -0.22433591538443795 -0.0029632256676709601 0.0054419020449170963 162 161 165 0.33484072926558761 22 533 21 722
2266 0.73058069867992181 0.14015625050455571 0.14599974704334825 158 139 114 0.068057831713049258 28 849 21 703 24 718
2264 -0.13914093500334451 -0.26095719520650928 0.051907650637142838 185 180 179 0.62886280482462531 25 770 40 786 21 652 24 518 20 519 19 360
2262 -0.32625224641048428 -0.72925961242669146 0.52829781091545502 195 182 168 0.1803241125916927 22 278 21 649 20 196
2261 -0.18803444242768014 -0.69949199704870413 0.071183358150536363 178 155 122 0.15453864167418022 22 987 21 647 24 507
2260 -0.55168624560225854 -0.021391329458907121 -0.071987490948977634 180 176 178 0.087081194744856691 22 526 21 629 24 560
2258 0.43480020810951558 -0.25801909679966528 0.40371925762277605 171 142 100 0.32718971318516848 22 698 21 608 20 516
2257 0.20717315707106743 -0.24347887291181189 0.077260672917690315 198 182 157 0.22613493542901583 37 782 21 606 24 529
2256 0.21423584399820295 -0.10392272924555465 0.077143378616360364 195 177 155 0.17310488552321598 22 525 21 569 24 563
2255 1.4788671904082147 0.79048642335285901 0.24097642196449645 148 124 101 0.21777655981829089 22 946 21 545 24 755
2251 1.5535733630673447 0.52002494752925232 0.65114921542573367 146 110 71 0.78860963953302343 22 903 21 415 24 257
2250 0.065998017767629313 -0.2489597402386626 0.054776295219418819 178 158 132 0.28969219704625804 32 211 21 411 24 436
2249 -0.053411721495101538 0.62402741637018566 -0.0044455509784740443 223 222 226 0.16818597914279246 22 599 23 490 21 406
2248 -0.56853968798433585 -0.11010841391876849 -0.072404214531225974 220 210 210 0.5799443258495286 26 246 21 405 24 584 20 312
2247 0.024075539684348279 0.68020515543298954 0.0064966660927249231 222 221 225 0.058270116884536836 37 394 21 388
2244 1.9631650073970111 0.82566015197578257 0.28733167048970798 176 154 122 0.40069365711514326 22 367 21 317 20 225 19 303
2243 0.97020896074939877 1.6196699524173559 0.090015589228651022 149 132 125 0.37674710061360006 22 356 21 306 24 485 20 416
2242 1.8684156681487485 0.97560716390916613 -0.01768807356676845 178 155 127 0.71905339217702458 22 361 21 305
2241 1.398633179371449 0.63606103995974561 0.234180346375613 183 161 131 0.13433877427022012 25 387 21 295 19 593 20 726
2239 0.58431873833434922 -0.19202218131210572 0.21847744636742314 170 143 108 0.3652867481312751 22 681 21 273 24 223
2238 0.046905002873434243 0.47058985011323728 0.025681064523532554 222 221 226 0.21143398295921681 22 396 21 256
2237 -0.19482944304049474 -0.6941508581188689 0.048290555801912965 216 197 169 0.12147279676921308 22 277 21 252 24 214
2236 0.67463615514756781 0.21065168400503698 0.13348641968229288 190 170 143 0.2666359832248642 26 282 21 215 24 344
2233 1.5582672777656805 0.81382069411952596 0.24386012549066269 178 153 124 0.18583322444222281 22 188 21 189 24 237
2232 -0.24454532099377685 0.77678437376481368 -0.03349951135279855 222 218 226 1.9730849797450825 25 229 21 172 24 165 20 236 20 242 19 213
2231 -0.37263811062467883 -0.42619419229301159 -0.055407256180820111 198 177 150 1.0079808389557947 25 178 21 161 24 218
2230 0.69366812427609414 0.14341893876325418 0.14255425753856885 188 170 142 0.37602414976988807 22 144 21 151 24 195 19 282
2227 1.5338891997643649 0.66588664226417071 0.25439970365713083 184 158 126 0.32221656881086874 25 141 20 172
2226 1.5070798656569573 0.47759595386625464 0.59644451253776576 145 111 72 1.6836003910106658 22 149 21 110 20 51
2225 1.7903071727299658 0.71883033707523625 0.81363321774423636 100 96 96 1.7597551791994701 22 119 21 101 24 66 20 36 19 19
2224 -0.093385915249036416 -0.65818449351716957 0.20984111263093067 166 136 102 0.41343575777482339 22 85 21 89 24 78
2223 0.84342155353902026 0.0177244236268152 0.44568087010221702 108 89 70 0.21842121205991705 22 74 21 81 24 52 20 46 19 40 18 24
2222 -0.093594313466570045 -0.095821270865126623 0.033696284917741265 218 218 221 0.21006877387990017 22 77 21 79 24 122
2221 1.4737238382680475 1.8387071320372386 0.67412971934463239 75 67 65 2.115258151592843 22 46 21 71
2220 1.3745245379714226 1.7429902908659709 0.2234955017301761 177 151 123 1.140892651525651 22 33 21 38 24 32
2219 0.48914054739831858 0.43452061219491733 0.091720335535799863 186 165 134 1.5530430128537915 22 20 21 21 41 73
2218 1.0495385793531438 0.39977525230140204 0.20465762018070424 173 149 120 0.483540879103523 32 14 21 6 19 15
2216 -0.16468761215355121 -0.34387589807540608 0.025045747878426006 110 107 118 1.3557976456020431 29 154 25 181 32 147 23 220 28 191 33 160 30 177 34 185 31 207 37 240 29 841 25 775 27 332 32 194 32 670 23 334 26 693 28 842 33 360 30 1085 34 355 34 569 31 329 37 585 40 801 22 614 48 664 21 368 24 554
2215 1.3026117792089531 1.640106098513253 0.12849605177660928 91 76 60 1.5990918802014575 29 1078 25 897 27 1079 23 1025 28 692 40 1087 41 750 41 922 36 734
2214 0.16915865715991846 0.63275676980139439 0.029384535014177982 217 216 221 2.7315189621180882 25 484 26 428 30 517 34 420 37 396 40 443 22 284 48 599 27 411 29 513 31 402 32 459 33 519 23 410 25 479 27 226 23 495 26 484 34 288 30 281 31 244 37 399 40 445 22 427 29 246 32 269 28 250 48 355 21 334 21 389 41 375 41 945 20 255 24 298 19 454
2212 -0.52994688365568332 -0.037284540197008526 -0.056786324126154454 175 171 177 1.9550608652157915 30 584 33 772 29 638 25 840 27 786 32 638 26 849 28 549 28 881 34 609 31 566 37 572 40 466 48 637 27 783 33 769 31 569 40 757 37 719 41 607
2211 -0.15445619733564372 0.77501098515091882 -0.022180739554502449 217 215 218 1.3392975621734891 25 395 29 426 25 627 27 389 30 439 31 383 37 378 48 363 21 440 41 361
2210 -0.51734962305797516 0.12107253482999569 -0.053657566535769599 207 205 209 1.8514119346243207 29 615 33 667 48 684 27 870 32 978 28 862 33 898 30 894 34 771 40 856 33 893 34 766
2209 -0.21034540485266623 0.029153991682081229 -0.0018051194683910282 181 178 182 1.0331760227181228 30 611 31 583 40 869 37 875 48 1057 28 890 33 786 34 780 37 493 23 823
2208 -0.36415613167708172 0.67475224524789157 -0.055986525604843622 214 209 216 1.803917542421585 32 1099 28 1008 33 1063 30 985 34 632 31 999 37 989 22 928 48 991 30 995 34 628 31 996 37 926 32 1095 40 949 36 611
2207 1.255590198494632 0.60573061210614976 0.21983231911758902 163 134 103 0.24514884602981621 33 427 30 436 31 385 48 985 34 416 37 392
2206 1.2332681430637447 0.55587778981225522 0.21974369184902973 108 90 71 0.84695682273290873 40 959 29 531 25 396 27 489 28 506 32 551 33 433 31 683 37 945 24 276 20 700
2205 1.2810054351835833 0.46439374099381681 0.22364360115518098 78 61 43 0.58856625961736875 25 468 34 640 48 989 31 468 40 513 24 283 36 618
2204 -0.039369624734662989 0.77086199568318214 -0.0083397988911041443 99 98 99 0.6076383727349931 25 379 26 385 27 391 30 437 34 412 48 614 23 381 41 348
2203 0.18461950336490318 0.65324817377731259 0.03863867843615551 167 165 169 1.7653512367407747 23 983 31 987 48 977 25 965 32 1053 26 953 28 1003 33 991 30 1025 34 1031 31 989 40 946
2201 1.2408117340485298 1.5983086031737967 0.11987282146739153 142 122 95 1.6415738185925619 25 983 27 1057 23 890 26 641 28 656 33 711 30 1056 34 1063 22 484 48 967 22 975 33 1045
2200 -0.5388431710809044 -0.097892528755729485 -0.056238969373132663 205 201 204 1.1071677253046903 29 788 32 825 33 780 34 817 48 491 31 561 37 581 40 474 41 596
2199 0.15942590735559509 0.56379494351383352 0.029279836349380972 196 195 199 1.1429604691172812 26 497 37 463 40 452 48 429 21 530 28 504 20 774
2198 0.046192126564867708 0.81140724670742037 0.0049258193463799366 205 202 207 1.5638332892970597 25 620 32 504 23 653 40 517 28 403 33 579 37 337 48 318 30 253 34 240 41 357 41 991
2197 0.11871307346425725 0.75189818650139983 0.014367659902268862 156 156 156 0.16763005292104322 29 989 30 946 32 1084 48 1048
2196 -0.56557168864840401 0.61087993291008602 -0.08394472266284933 164 161 165 0.28199264544984259 31 971 48 1031
2195 -0.13464258490290359 0.78970163947733052 -0.028089364156985555 139 137 140 0.22271296840927116 27 969 40 1115 48 1012
2190 0.52246335926653542 1.4349175957731262 0.040160260449492696 141 119 90 0.093078100667501634 40 1044 36 739
2189 -0.61973959385964461 1.9276869184092824 0.86022689054765611 117 115 127 1.5566529834181362 40 1077 48 942
2188 1.2181026913413078 1.7738715362824802 0.098104098825699537 0 0 0 0.25675349367982764 32 1123 33 1028 26 907
2187 -1.0714573185315621 0.44876485992929516 -0.18791357368822942 187 163 128 0.55455355997347133 40 570 48 885 41 531 36 468 35 599 39 360
2186 -1.1970356127803581 0.43754649233333631 0.31944328277206535 214 205 195 0.47301802145669919 40 988 48 883 41 530
2185 -1.1137040675752332 0.39303966779232535 0.36233079102060395 155 120 99 0.10259116601463204 40 1076 48 875 41 525
2184 -0.19244361405674307 0.10478900792831168 -0.0036762515982954463 191 191 192 1.8261879257605653 22 600 48 840 41 814
2183 0.42476566494651657 0.36637232419356519 0.083974236220604848 165 163 164 0.39112376127846021 40 1003 48 810 20 605 19 433
2182 -0.49890438784233027 0.53890326536036282 -0.073826364727942489 132 130 131 0.14222029220970231 40 904 48 776 41 778
2180 -0.7871123684262179 0.47646909350212585 -0.12927485078296 197 194 197 0.31384443226319897 30 855 32 1148 48 772
2179 0.35992729721181282 0.30674871877079257 0.085012188599352889 148 146 147 0.75538759264144062 25 663 48 747 41 706
2178 0.22256252536750831 0.67212970916915649 0.013697560277058166 193 192 190 0.96129373609096902 40 563 48 701 41 949
2177 -1.1045796451642846 0.49475672167557705 -0.15988252055854296 235 214 186 0.65456553846252208 40 1021 48 686 41 434 36 238 35 209 38 172 42 171 39 359 45 243 46 245 43 228 44 269 47 256 49 354 51 327 52 154 51 113 55 155 56 200
2176 -0.25940666711776844 -0.30644079124251178 0.010587695587837814 162 149 120 0.40963697263845189 40 482 48 663 21 1010
2175 -0.63066291403586394 -0.16459714068282147 -0.089523192348203703 198 174 143 0.11136095369260596 40 794 48 662 41 636
2174 -0.80312295679431012 -0.028345735037543618 0.24502661599918227 234 223 209 2.0286099161987607 40 756 48 640 41 473 36 174 35 141 38 66 42 77 39 106 45 87 46 66 43 73 44 82 47 65
2173 -0.48859806042780884 -0.095222076410051648 -0.048843538811494509 197 192 196 0.19919697951630555 27 756 33 778 48 625
2171 -0.017241039690966686 0.65681823394563565 0.001327348925639113 190 188 191 0.16077340530785922 40 329 48 597 41 984
2170 1.2518244887047683 1.6656954162716258 0.114504811080445 128 107 85 0.16305443287243671 32 472 48 581 41 379
2169 0.94019660677849759 1.8243221139696884 0.1046306791533359 155 117 89 1.269342787485167 31 1015 40 682 48 577 41 276
2168 -0.71226810115606953 -0.10634035356290475 0.16573392990932104 223 215 205 1.1306082230912122 40 730 48 570 41 279
2165 -1.0501527460915274 0.38951749570460514 -0.17894453577676217 193 171 134 0.7120230928343273 40 792 48 518 41 254 36 225 35 201 38 300 39 492
2164 -0.26565886492463725 -0.70196521673098777 0.017552894653521139 163 146 111 0.16481953258071025 40 326 48 470 41 618
2163 -0.32832969737729872 -0.63206014105838149 -0.0060554430850753432 214 195 160 0.39351684322138308 40 324 48 469 36 522
2162 -0.37547871369788632 -0.73301466447089059 0.44617689045648601 243 228 214 1.2025517776838568 37 543 40 781 48 456 38 327 42 392
2161 0.16740975834628785 0.46183523028961471 0.042408485266007767 191 189 192 0.0752105214013013 37 477 40 330 48 452
2160 0.80883904028297959 0.2946839253425157 0.1579252188192112 150 128 96 0.3404945295448718 37 449 40 621 48 438
2159 0.16692446086376161 0.28887822131852259 0.050138503812464819 193 190 193 0.54923331683235577 27 303 48 368 21 470 24 348 20 657 35 620 19 461
2157 -0.31201810775944461 -0.6802177054009888 -0.010961750483442848 218 201 169 1.3424266403795777 40 325 48 275 36 255 41 264
2156 -0.38790644531494756 -0.76186354833711101 0.50293535123993094 163 159 164 0.88387560267058873 40 191 48 274 42 117
2155 -0.44744708873802747 -0.46712271462522004 -0.042947249582906438 213 192 157 0.33118255698072463 40 194 48 271 41 269
2154 -1.1300422034313455 0.38566196131750841 0.38723546573393786 204 196 180 0.53613443120461457 40 284 48 260 41 165
2152 -1.0009227717862854 0.36080361449385712 -0.17399965238388959 199 177 140 0.35786096742287082 40 187 48 164 41 170
2151 0.8944588450676273 1.8890480265181664 0.34086457223555944 155 115 92 2.8556565354359815 40 387 48 136 41 106
2150 -1.047511815623527 0.419670613240676 -0.17731465929586976 209 189 153 0.41784489491668564 40 119 48 113 41 119 36 118 35 114
2149 0.70191569058191383 1.5603929400356342 0.043952327607411718 63 59 64 0.61551629610611158 40 105 48 102 41 147 36 189 35 254 38 506
2148 -0.40043102954347476 -0.47856655894521627 -0.025154525704418618 159 134 105 0.85842021005577918 40 93 48 92 41 99 35 135
2147 -0.5803763300871142 0.25358725019687212 -0.070813300327967954 188 186 189 0.45732154127894531 37 87 48 82 41 130
2146 -1.1529777848378751 0.45841923809156271 0.24079901133137746 229 210 189 1.05150545755786 40 122 48 80 41 65 36 68
2145 -1.1742664919830932 0.554523632485308 0.29476775124469068 235 220 201 0.47791273487215347 40 80 48 67 41 52 36 25
2144 -0.27355710862711019 -0.47124314022882152 0.00050543389241761161 62 61 76 0.69764605126428192 37 74 48 59 41 98 40 74 36 98 35 86
2143 -0.27784438992790228 -0.61421834852177026 0.014884100242491954 156 135 107 1.4117143099075569 40 67 48 51 41 61 36 61 35 56
2142 0.080519040367862837 1.0283521299719671 -0.011232149832970079 146 120 83 0.41696394219824656 40 52 48 43 41 47 36 82
2141 -0.1894958191503498 1.0496905981391025 -0.050980336730918535 153 127 98 0.51500897483017904 37 20 48 33 41 39
2140 -0.73092668159479035 0.18765008260134364 -0.11650791420676111 183 178 180 0.31908098220359954 40 35 48 22 41 29
2139 -0.82776209075798357 -0.11458461766436775 0.44005165807536595 172 170 175 0.43316856540003035 40 12 48 13
2138 -0.27546055679000531 -0.4350295332505113 0.010006400364983847 158 134 110 1.2750353955320379 40 3 48 4 41 6 36 13 35 9 38 8
2136 0.17451592117556375 0.57994649832687117 0.036544931024164257 162 158 164 0.19607404971314321 29 1043 25 959 34 1041 22 931 27 691 32 1068 40 961 28 612 48 986 21 843 24 655
2134 0.30638997172622817 0.33889779341478721 0.069668725697045741 140 138 141 0.32176331711561795 22 410 29 319 25 464 27 471 32 529 23 468 26 472 28 489 40 622 41 712 19 489
2132 1.2024084644571382 0.50586661143722533 0.21544795209937753 179 155 122 0.35313975492237204 23 218 26 223 31 404 22 186 29 277 25 216 27 219 32 563 28 242 33 445 21 351
2131 0.80674924871453058 0.22670151126683075 0.14125570903357151 181 159 126 1.831971762725892 25 272 22 242 25 166 29 338 27 230 32 346 23 160 26 162 28 258 33 513 34 723 31 461 24 339 28 263
2130 0.98029505126135918 0.28359549793444849 0.1833202193904083 181 157 123 1.3866089522513383 29 328 27 496 23 470 33 491 30 494 22 399 25 465 26 475 21 336
2129 0.37628543517150104 -0.12939646731641377 0.10443951843397553 183 160 130 0.62023466311559616 25 677 37 504 40 1075 22 467 29 411 27 379 32 425 23 349 26 367 33 408 30 394 34 377 21 531
2128 -0.11510217294960598 0.33371403083231121 0.011688115942729435 95 89 102 0.78532652165614192 29 914 32 797 23 821 26 757 28 770 33 864 30 866 31 854 22 772 37 1135 40 969 21 691 41 728 36 673 35 623 38 396 42 579
2127 1.6258981865983451 0.64379385014041524 0.26047308900605448 163 133 99 0.64535599359445017 29 72 32 87 23 71 28 74 22 65 25 54 26 70 21 65 24 101
2126 0.18926263085523665 0.30191410203858798 0.053944797434360675 176 173 177 2.1559482569699742 25 545 27 525 32 574 29 676 23 579 26 516 30 565 33 620 34 682 31 539 22 482 30 659 34 673 31 536 29 674 25 505 27 523 32 572 23 580 26 513 37 683 40 1082 48 740 48 771 40 1159 21 469 21 904 41 424 24 715 20 662 19 459
2125 0.18383364314851736 -0.20074346236029447 0.071838288705049658 192 171 145 0.34830140247492369 25 341 23 376 22 295 29 357 27 324 32 391 26 319 28 344 30 410 34 399 31 370 37 571 40 464 48 715 21 390
2124 0.14051697661553109 0.45492806454188328 0.036505567632201058 173 171 175 1.7511993008265492 29 752 25 735 23 578 27 567 40 612 22 669 30 1008 34 1022 40 918 33 1082 37 610 48 778 41 781
2123 -0.24901695713165004 0.0016737414629775793 -0.0067244070755659996 214 212 216 0.20865277823388861 25 259 22 227 29 282 27 176 32 226 23 268 26 348 28 376 21 523
2122 -0.66657664249953474 0.47866565968107755 -0.099045761057000137 206 203 208 2.336461059919658 29 672 27 563 32 612 23 723 26 703 28 747 34 477 31 341 37 448 40 610 22 762 27 556 32 400 26 732 28 653 33 618 31 457 34 469 37 428 40 425 48 343 48 377 33 621 41 411 41 421
2121 0.62535052625711085 1.2882483147002188 0.061749517399736192 149 133 118 0.35260369015848547 29 704 25 863 27 908 32 696 23 875 26 912 28 724 28 930 33 967 30 1111 34 1118 31 1075 37 1098 22 556 32 715 34 531 21 955 24 780
2120 -0.53165225600357946 0.057284598676007242 -0.053253203569615444 191 188 193 1.0817735246576552 29 311 32 319 28 289 33 409 31 354 41 236 36 424 35 519
2119 0.14495552095547759 -0.28904130410152196 0.071259357574342208 188 168 141 0.4253492105922983 32 207 23 326 28 182 22 320 30 361 31 322
2118 0.41563939569297392 0.00068546975165503787 0.11751506381444682 163 145 126 1.4668015714675828 25 543 26 551 22 542 27 359 28 374 24 686
2117 -0.62118317469450446 0.1534182971641429 -0.076130037808418344 212 210 215 1.8611167798641979 29 739 27 903 32 590 23 847 26 746 28 853 40 266 22 785 32 350 26 570 34 294 31 286 37 275 40 269
2115 -0.55263601076013735 -0.075042571691173204 -0.055572783707433925 205 200 202 1.5275948029943489 25 834 27 612 32 631 23 745 26 792 28 1045 29 631 30 586 31 563 37 577 40 471 33 779 22 677 33 638 34 348 31 373 30 415 37 332 40 335 48 569 41 600 34 614 36 859
2114 0.18276135155380102 0.48172159973188078 0.04487330016736446 171 169 174 0.16208464432119377 29 755 25 744 27 743 34 1014 33 1101 22 637 32 613 28 744
2113 0.14741178814578065 -0.25548101985568017 0.068050170320790665 159 140 122 0.57976675154496204 25 360 27 328 30 357 37 322 40 349 22 455 29 619 28 576 48 487 41 673
2112 -0.049393273115298286 -0.38318952775553905 0.050728438012888677 191 170 143 2.2473752406469831 29 78 25 91 26 82 28 67 34 77 37 93 32 159 33 176 34 356 28 573 31 135 40 97 40 359 22 82 32 1114 23 781 26 813 30 1086 34 571 31 805 37 797 40 483 22 739 21 86 41 274 24 117 36 173 36 543 18 251
2111 -0.046826036713502883 1.1073419325677007 -0.039427176411042847 159 133 126 1.2083352452420399 29 996 25 1000 27 645 32 702 23 939 26 895 28 721 33 702 30 660 34 446 31 655 37 401 40 532 22 832 29 695 28 722 48 309 21 954 36 390 35 344
2110 0.64991505330661403 1.2417954458401861 0.077254310487036237 181 159 145 0.10698807264999388 25 1032 22 1009
2109 1.0988186890520844 0.52770186480819714 0.19702887176538772 144 125 99 0.14740102738836422 28 1024 34 1157 22 985
2108 1.8723362365670551 1.0497434492457776 0.23394843204963364 120 92 73 0.063210630576083962 29 1001 22 977 19 343
2107 1.1505121309413626 1.6212224243771878 0.10978356975828871 172 145 118 0.33218846854134532 30 1052 22 968 21 925
2105 0.042225390656352557 0.69949662951279556 -0.0068152832632905336 184 183 189 0.38831959251012571 32 765 22 908 21 748
2104 1.2749893297771013 0.5858467058468172 0.22603778843019259 146 125 103 0.14325389418493439 28 1041 22 900 21 784
2103 -0.20325731988701509 0.80418334463092223 -0.030797799831004974 190 187 192 1.0318068482878306 34 940 22 875 41 1001
2102 -0.22105053656921425 0.81367561833430568 -0.038340971370928803 194 193 198 0.59495327683136356 28 406 22 872 20 765
2101 0.35211723493430236 1.6020344456349971 0.32277927185550725 178 154 119 0.27131905407608559 25 1016 22 843
2100 0.83427925887358223 1.3607472792532267 0.084483659258649063 177 158 137 0.64121737757286168 23 868 22 835 21 888
2098 1.8444293625107804 0.67475973047596449 0.34452777884958785 141 115 80 0.49897284485591342 25 989 22 826 21 937
2097 1.9491204043399839 0.80420134550222255 0.29422990626356671 109 84 54 0.31460644253858366 25 980 22 811 24 796 20 369 18 135 15 199
2096 1.4984150462810537 0.8147120634969155 0.23225519538312536 152 129 106 0.098504172813862645 23 918 22 810
2094 0.53576933701041285 0.087584854375288609 0.11588621482035277 160 146 123 0.12057046021628393 34 542 22 795 48 880
2093 -0.27699021683857117 0.11867694813709462 -0.011429114516465541 153 153 155 0.0095498658633861068 28 557 22 778
2092 -0.79982149301610717 0.44915015548988735 -0.12896803759143582 184 182 187 0.2271570939194478 23 587 22 770 41 161
2091 -0.86764467524245648 0.50261072728758538 -0.15443618899862127 216 214 214 0.63626484025367436 23 508 33 295 21 700
2090 -0.37881592751782267 -0.33172035213801576 -0.010116502083391044 178 164 151 0.48967023038123864 28 841 22 736 21 658
2089 -0.24758365389481868 -0.73836381708520826 0.26255642069132201 179 170 148 0.34615011054125078 25 650 21 692
2088 -0.80291443278179431 0.59520305220180958 -0.10431409936057275 223 218 220 0.81468637945346245 25 512 22 666
2087 1.2848634812917683 0.27956103216724304 0.28259545246792617 192 169 135 0.26575001506595525 25 761 22 661 21 397 24 206
2086 -0.023971476863311081 0.5323214346231957 0.0064250832909158451 188 184 190 0.24702324304911713 26 976 28 603 22 646 48 419 21 858 24 666
2084 -0.083132719114479919 0.66023697965024108 -0.0075976403495617573 221 220 226 0.28218771505235168 32 458 33 526 22 617 21 382 24 846 20 595
2082 1.3237163642445253 0.58046132739271195 0.2243321030649443 186 163 135 0.38237859144369185 25 625 22 588 21 425 24 331
2080 1.9314476639026847 0.88734087238800818 0.25241814759991754 154 129 98 0.47677889178419053 25 880 22 554 21 598 20 373 18 385
2079 1.0521172674112056 0.33270484958288438 0.18771684218160054 184 163 134 0.38421835318666364 25 515 22 538 24 653
2078 0.85081008090457144 0.14457656750070191 0.1682717092556498 189 166 134 1.2193757613270098 25 554 22 523 24 347 24 912 20 580
2077 1.0064439077167093 0.11352144853588139 0.43810531001345565 68 41 41 0.18705190349851253 25 713 22 511 21 478 24 193 20 186 19 168
2076 1.1206023569509989 0.21789568496605843 0.50873847101787717 77 56 54 0.46909900658404252 25 723 22 494 21 222 24 336 19 216 18 186
2075 -0.91564966215650434 0.5150790248512126 -0.15358198093651032 188 169 157 0.51838056086176965 25 523 22 489 21 900
2071 0.10556491117499489 0.55490754854568569 0.02749805299379357 222 221 227 0.11468986578215486 32 544 22 470 21 503
2070 -0.1660296731837545 -0.66663834142129363 0.055990679699935764 214 195 165 0.37485946436278333 25 649 22 444 21 383 24 424 19 294
2068 0.20862842475278243 0.57317983670158501 0.042177701783869759 221 220 227 0.51553550118917524 25 471 40 450 22 434 48 430 21 327 41 973 24 368 20 773
2066 1.0652897162742199 0.47191217997111223 0.1911620789224758 176 155 124 0.20743700221663319 25 475 22 423 21 358
2064 1.6458923976291318 0.86813557639301708 0.24430784739001957 176 156 127 0.43835656089989056 28 451 22 372 21 319
2062 -0.030723088409999821 0.48703989112446 0.11409585039211015 217 216 222 1.7614638916903671 25 442 22 288 21 507
2061 -0.20936331885185966 0.14270541475085391 0.0024796626216291306 219 216 223 0.29824868882778349 30 239 22 214 21 213
2060 -0.34034237493278913 0.13948512002772614 -0.027225861415978131 217 217 219 0.16774792221854415 25 302 22 212 21 554
2059 1.4690138000204911 0.68770259360646402 0.23999138325485628 181 156 126 0.21438861612854182 25 226 22 205 21 184 20 282 24 268
2058 1.7209366438436917 0.59662490879542751 0.34488427377345099 189 160 127 0.24634131479826712 25 386 22 193 21 120 24 139
2057 0.60064640965364025 0.14326344800305493 0.12479162693695292 186 171 144 0.32404342999606345 33 225 22 168 24 192
2054 0.45450736886334531 1.1899284460904833 0.042405223199548925 78 78 93 0.75417515419711878 25 33 22 34 21 35 24 31 20 37 19 26 18 43
2051 0.42376596712412495 -0.2911992699956607 0.23319571968303501 166 139 105 0.81641509051807881 25 52 22 24 21 39
2050 -0.24344666597271955 -0.37290900661505821 0.071175611595579169 98 107 128 1.5609966575008869 25 11 26 5 22 9
2048 -0.10793092932586001 0.91609815115005355 -0.034685216930680482 53 53 54 0.26356728066665447 34 651 29 707 27 996 32 711 26 1019 28 962 37 605 22 895 48 923 41 889
2047 -0.3581014670951374 0.69979362633339226 -0.047846527014246895 93 91 94 1.8232265814443769 33 1048 30 1033 31 992 37 924 40 1133 34 965 40 1127
2046 1.0329741117884059 0.3220417786892118 0.19062598268767875 175 151 116 0.34098043290751484 32 535 26 469 28 490 33 542 37 669 30 488 34 461
2045 -0.29669862300057614 0.25786527764118455 -0.025687614607507431 199 196 199 0.087920623084427954 31 884 40 846
2044 -0.35141080943686281 0.15020367915650254 -0.03351411762115894 211 209 213 1.8017015402830658 31 214 37 222 40 175 29 335 27 318 32 280 23 310 26 263 28 326 30 227 34 195 48 252
2043 0.2714293291189156 0.30788643323620868 0.067612167791941402 211 209 214 0.46627928643991923 23 474 29 321 33 335 40 582 25 451 26 284 48 380 21 464 20 275
2042 0.47584384895251819 1.1939562334123091 0.048556391525721526 69 60 69 2.1766309800944321 29 937 27 1108 32 1043 26 602 28 983 33 1050 30 1057 34 674 37 413 40 535 29 178 32 175 28 215 31 229 40 409 48 563 41 871
2041 -0.26745542399061067 0.098797729322245814 -0.010570283817392126 195 193 197 0.98653739136404306 32 989 23 841 40 896 37 863 30 885 27 876 32 948
2040 0.79790418435973021 1.3435702265562806 0.081860089154785931 149 126 98 1.9687075064179218 29 737 25 877 27 427 32 475 23 626 26 607 28 465 33 727 31 647 33 725 34 597 37 536 37 552 40 542 28 441 29 460 22 836 48 908 41 894 41 930 24 790 20 441
2039 0.14610156509581013 0.4905537076189983 0.037057345514030532 211 209 213 0.32366311728919062 29 494 25 498 23 502 26 506 40 412 30 483 31 484 37 472 48 416
2038 -0.71997160244974912 0.64411615395668698 -0.12673526380083339 165 142 128 0.40029015946671676 27 685 32 457 40 242 30 274 34 268 37 207
2036 0.53314810051245243 1.3459004334702043 0.036805516181017822 108 96 96 1.4504855050709884 25 857 27 1128 26 1046 40 527 29 965 25 860 27 636 21 960 41 932 24 809 36 816
2034 1.1923484072146806 1.77768316159988 0.077631251215853625 167 145 116 1.5970115363188613 37 561 34 367 40 1097 27 656 23 333 26 200 28 446 33 1026 22 118 48 938 21 165 41 536 24 168 20 230 19 337
2033 0.069335610800862646 0.56900705251019335 0.03023519761223778 86 85 88 2.220700037440392 23 970 32 1102 32 1069 28 1113 34 1050 48 1044
2032 0.42200306518205599 -0.036532851146715645 0.10432241429155265 148 133 111 0.35354658292807223 29 396 27 363 32 410 23 362 25 254 26 353 28 368 40 641 31 282 37 263 22 221
2029 -0.75202337919429141 0.54563341592861447 -0.12386148449364898 155 153 155 0.25672305932345274 34 707 37 608 27 726 30 675 31 674 40 413 29 1030 32 756 48 279 41 463
2027 -0.25878283946412595 0.051385462892574368 0.031728970239051107 90 87 89 1.3577797547778268 37 1138 40 860 30 765 34 778 31 754
2026 0.25957672980655544 0.5778004883095148 0.053810533318428444 214 212 216 2.1520450905641608 28 1032 25 961 32 1115 26 989 34 1025 33 592 30 626 31 689 37 994 27 1035 32 1070 34 1038 40 958 23 551 32 674 25 612 37 596 40 964 22 929 22 939 33 559 21 836 21 841
2025 -0.64046153781568527 0.50992486014548655 -0.093196162476966132 211 207 214 0.78506598325038679 29 763 27 719 32 1105 33 755 30 670 34 698 31 643 37 667 48 798 41 717
2024 -0.51882252742174317 0.070051784936997999 -0.047908579131941451 172 170 173 1.8980197608749756 32 953 26 823 28 906 40 494 29 603 26 864 30 605 33 791 48 527 33 641
2022 -0.19360881580996978 -0.087159496516235307 0.012821493400482789 216 214 219 1.1943142745696167 29 405 25 324 27 375 32 308 26 364 28 395 30 407 34 395 31 262 40 207 32 151 26 185 34 131 22 466 21 395 41 189 24 596 36 423 36 533
2021 -0.026747270582095084 0.90713857739793069 -0.023153254822621094 194 191 194 0.10369061859979549 40 1142 22 1002
2019 1.4266137169666413 0.78211916879602461 0.23136101583393706 161 132 100 0.043121513955268552 34 657 40 1119
2018 0.04165437597954752 1.013007262781713 -0.020644583306373754 126 106 105 0.053956848342778176 37 1090 40 1054
